ply
format ascii 1.0
comment VCGLIB generated
element vertex 780
property float x
property float y
property float z
property float nx
property float ny
property float nz
element face 0
property list uchar int vertex_indices
property uchar red
property uchar green
property uchar blue
property uchar alpha
end_header
12.39423 10.05278 2.941349 0.6938128 0.6892848 0.2017983 
13.5001 8.811905 -3.737498 0.7216892 0.6351562 -0.2694513 
-17.4492 14.34096 4.208813 0.7049664 0.6772596 0.2002435 
-12.42264 -11.31959 9.811058 0.6906371 -0.5456731 0.4730083 
-28.70978 1.960262 -19.48372 -0.525098 0.08630183 -0.8407531 
-20.12076 -11.2678 -9.862851 0.7125822 -0.5263179 -0.4613762 
18.90014 6.097645 5.376408 0.7253963 -0.4621015 -0.4086528 
-30.57913 13.77835 1.201201 -0.956472 0.2819978 0.02216077 
14.7231 5.648821 5.727498 0.6893053 -0.5066653 -0.5138966 
-32.65156 3.822709 -2.231592 -0.9924535 0.09725037 -0.04653232 
15.58744 -9.057574 2.778394 0.4638167 -0.8675032 0.0529149 
14.58011 1.799293 -3.533117 0.6884855 -0.1619693 0.3171631 
9.959745 -10.47712 -0.1662419 0.7008801 -0.7113401 -0.01145495 
-3.449904 12.19462 4.98817 -0.723802 0.6367537 0.260538 
-30.63671 -13.39881 -2.655375 -0.9718938 -0.2213133 -0.04533552 
16.36559 4.573997 -8.309313 0.7064304 0.3409034 -0.6184164 
14.58011 4.408353 -5.457921 0.6880643 -0.3962708 0.4904514 
-0.3908319 13.46574 -4.593436 0.5321208 0.6857651 -0.2339283 
13.5001 -6.873257 6.558625 0.724766 -0.4951957 0.4755674 
-26.50366 17.36498 -9.311611 0.4502525 0.7817354 -0.4198981 
-29.30756 -2.254517 18.9126 -0.7903191 -0.0758278 0.6012303 
17.12763 6.706951 6.682929 0.7012097 0.5037608 0.5004962 
-3.449904 8.243343 -11.46015 -0.6907707 0.420465 -0.5847685 
-25.26968 9.857254 -12.43838 0.8166714 0.3047801 -0.3650151 
-30.94228 -4.562568 -10.89249 -0.8853381 -0.1510514 -0.3432707 
-29.93649 -6.68363 -13.99928 -0.9850774 -0.0733601 -0.1550276 
-27.75736 18.76807 6.847102 -0.1039159 0.9308742 0.3396037 
-25.8227 -6.386624 18.11241 0.7521107 -0.2173435 0.6194426 
-30.94228 -10.9064 3.030584 -0.7742867 -0.3811361 0.3284678 
-30.43108 -11.6608 8.12946 -0.983915 -0.1462981 0.1016957 
-13.50709 -1.631024 14.856 0.6937286 -0.07891634 0.7130652 
-12.512 -13.02805 7.416146 0.690892 -0.6278513 0.3573804 
14.58011 3.064927 -0.9673119 0.6884187 -0.2756937 0.08681433 
-31.77426 5.532384 8.275105 -0.6415697 0.4033467 0.6276569 
14.58011 -3.965791 -0.9118435 0.6890932 0.3557053 0.08204372 
0.6300046 -12.16159 -0.4719749 0.7074978 -0.7038619 -0.02953083 
-2.309761 -14.19086 -0.6759894 -0.2332542 -0.7226931 -0.03442587 
-7.791183 -6.195806 11.52109 0.05716912 -0.3243756 0.6031758 
-17.99994 1.326743 14.88262 0.7065364 0.06096881 0.7017986 
18.08333 -5.678749 5.711936 0.71841 0.4884591 -0.4923782 
-28.82149 -19.54624 -0.3516749 -0.5745906 -0.8124962 -0.0154828 
14.58011 5.596224 -0.7146177 0.6881661 -0.5030326 0.06409217 
-32.52915 2.435368 4.879359 -0.9905543 0.0522188 0.1103124 
-30.94228 -0.02442316 -12.53072 -0.9524408 -0.001737871 -0.2365633 
-3.464988 0.6474845 13.05335 -0.7245347 0.03389843 0.683396 
13.5001 0.9098341 10.18384 0.7011048 0.06232155 0.708485 
-21.04564 7.567122 -12.9418 0.7152188 0.3523166 -0.602687 
-19.67237 12.35084 -8.411102 0.7113041 0.5774429 -0.3951837 
14.58011 -3.948137 -5.005801 0.6892627 0.353667 0.4498064 
0.6300046 11.75749 4.060634 0.7038149 0.6708812 0.2311014 
4.566284 7.782222 -7.015865 -0.08854538 0.5095381 -0.4597201 
-8.327754 -12.91048 2.277818 0.1541225 -0.6759162 0.119253 
-25.26968 -10.9296 13.87427 0.9943931 -0.03531615 0.04429013 
0.6300046 4.436472 -11.60184 0.7039117 0.2541689 -0.6615793 
-13.10317 -10.62428 -10.50637 0.6925772 -0.5105413 -0.5054007 
-8.947108 -3.194606 -12.66483 0.2660342 -0.1672506 -0.6630553 
18.90014 -7.035825 -5.900965 0.6984382 -0.3334331 -0.2652234 
9.023157 3.775101 9.78493 0.7048955 0.2558009 0.6602646 
-25.26968 -14.83286 4.377686 0.7787373 -0.5423664 0.1506813 
4.412575 -10.21852 -2.315774 0.716914 -0.6780172 -0.1540729 
1.576185 -5.654636 -8.811728 0.6575227 -0.3662961 -0.6042811 
-21.08052 1.034915 -14.90816 0.7153182 0.0473592 -0.6941875 
2.230219e-16 13.65154 -0.728469 0.7159931 0.6944142 -0.03703651 
17.94251 1.619735 -9.358292 0.69496 0.1226547 -0.7080057 
9.860395 1.450728 -10.39234 0.7022977 0.09795891 -0.7043126 
-15.04114 -11.59292 -9.49352 0.6981018 -0.552896 -0.4532221 
-2.77661 14.24061 0.1073272 -0.4194593 0.7252268 0.005465813 
5.007482 -0.7341329 10.44439 0.7157004 -0.04938553 0.694322 
-29.77468 -14.68278 9.392361 -0.9968921 -0.05499899 0.03412812 
-11.49968 -11.22954 -8.237574 0.7092458 -0.5669812 -0.4137074 
-25.19669 -3.998075 14.39743 0.7270523 -0.1830289 0.6590427 
12.31503 8.909928 6.41577 0.4265619 0.6554556 0.3035457 
10.90264 -6.619223 -8.794295 0.1127679 -0.4157656 -0.5916749 
17.21265 7.27082 -6.113085 0.7002728 0.5460271 -0.4590483 
-26.74967 -13.33753 14.64629 0.3414082 -0.6310264 0.6930231 
-15.50668 7.727532 12.82948 0.6994289 0.3675701 0.6112525 
-25.289 -16.14181 -7.738699 0.990486 -0.106161 -0.0569618 
-25.26968 17.15209 -3.494382 0.9783162 0.09289491 -0.01759907 
7.947535 10.10361 2.784203 0.7069385 0.6801559 0.1872671 
5.359558 2.310919 10.22383 0.7148141 0.1543655 0.6804219 
-14.32263 10.49324 -10.63741 0.6960535 0.5015317 -0.5095016 
-5.364255 10.86262 -7.256177 -0.3813547 0.5687025 -0.3798903 
15.51971 7.868791 5.269161 0.7125182 0.5811749 0.3883593 
-30.24814 1.829548 14.59962 -0.9717767 0.02232573 0.2204518 
-5.163765 3.529675 -12.57505 -0.4175813 0.1847928 -0.6583549 
-27.59325 -15.88762 12.03551 -0.03140135 -0.7922839 0.6005653 
-1.307879e-15 12.4184 6.74113 0.6928375 0.6322947 0.343255 
-14.36562 14.89682 -1.164476 0.696176 0.7127116 -0.05492074 
-29.56512 -1.251488 -18.56646 -0.9051661 -0.0333938 -0.413256 
-2.400363 -10.90067 -9.175181 -0.2693914 -0.555135 -0.4672614 
-30.94228 -6.029177 9.91222 -0.8636904 -0.225932 0.3481998 
-6.97041 13.07758 0.3705457 -0.09113702 0.6846645 0.01939957 
-4.424566 8.717434 -9.752355 -0.5511478 0.456393 -0.5105753 
-29.77468 16.26217 -2.619838 -0.989379 0.1325152 -0.02069851 
-25.82599 17.8221 7.096716 0.7506464 0.6106491 0.2427747 
14.58011 2.855387 3.896988 0.688418 -0.2569246 -0.3499431 
-23.00106 14.70226 -2.860439 0.7207932 0.6791795 -0.1320233 
-29.77468 -13.61987 9.620615 -0.9911824 -0.09839266 0.0633927 
-30.19649 13.62206 -5.881653 -0.9844821 0.1604342 -0.06981116 
0.7325193 9.770729 5.05119 0.7173031 0.618605 0.3198101 
0.6300046 6.856016 10.97906 0.6984423 0.2419931 0.6421311 
18.85599 8.03804 -0.4224535 0.7268592 -0.6836222 0.03590783 
-27.38936 0.9784213 19.90274 0.05868564 0.04826767 0.9906675 
-30.28464 14.35744 2.727194 -0.9777793 0.1978517 0.03900274 
-24.49088 -14.4323 3.867923 0.7250403 -0.662634 0.1773881 
-8.366972 12.10284 -4.948236 0.1612088 0.6336328 -0.2590602 
15.75307 -7.714633 3.175 0.2504678 0.4379749 -0.5011903 
-18.30961 -14.55752 -3.400586 0.7074192 -0.6851975 -0.161157 
6.005972 -8.315919 -6.364373 -0.2388394 -0.6561875 -0.4059594 
14.58011 2.90625 -1.938762 0.6884137 -0.2614207 0.1740187 
13.99093 -2.593044 -9.105362 0.7226977 -0.188406 -0.6623771 
-29.77468 -8.435312 -14.42179 -0.9908809 -0.05949428 -0.1039057 
-28.63728 -2.939168 19.44624 -0.4929865 -0.1297562 0.8581594 
-29.76744 -10.75214 -14.15509 -0.9957734 -0.04177475 -0.06076571 
-30.61518 -11.66596 7.23775 -0.9834675 -0.1531949 0.09575316 
-15.03037 -11.45211 9.678539 0.698071 -0.5463773 0.4618072 
-3.373029 -10.2529 9.822954 -0.657344 -0.5221461 0.5002503 
-6.256872 -5.469465 11.85979 -0.2200669 -0.2863487 0.620908 
-30.09949 -14.34941 -4.732463 -0.9847144 -0.16522 -0.05395643 
-6.374415 -2.722903 12.79122 -0.198828 -0.142555 0.6696725 
14.58011 -2.396062 -6.506231 0.6888205 0.2148795 0.5841553 
-27.63214 -0.8943639 19.91209 -0.04858322 -0.04412082 0.9919099 
-21.73163 -2.4026 -14.7885 0.7171744 -0.1111722 -0.6867443 
-0.6347079 6.716514 12.53134 0.4348494 0.3420497 0.6381794 
-23.3486 -12.76589 7.818345 0.7217839 -0.5883901 0.3613067 
-25.26968 13.65851 -8.035887 0.812185 0.4208687 -0.2433781 
1.165425 10.43459 0.7508162 0.7260196 0.683374 0.04919627 
-11.25545 11.44134 -6.366821 0.6831301 0.5990007 -0.3333289 
-23.03459 3.458199 14.54209 0.7208887 0.159361 0.6717556 
13.81079 -9.184557 -2.291804 0.6789969 -0.7023146 -0.1375576 
0.7739686 7.60977 9.02789 0.7145855 0.1013869 0.6899109 
-28.65351 17.04661 -9.860792 -0.5001653 0.7493109 -0.4333615 
1.054646 -5.897353 9.244823 0.7703028 -0.1665131 0.5929959 
-13.79615 -4.063233 14.37997 0.6945526 -0.1954582 0.6893063 
-25.26968 12.17613 10.14197 0.81156 0.3736663 0.3133486 
-31.92768 -5.27699 7.543502 -0.7487663 -0.3001069 0.47506 
0.6300046 2.513328 11.84637 0.7084398 0.1478646 0.6879525 
6.468964 7.727485 7.073523 -0.5334606 0.5062566 0.4637454 
-24.1368 -1.40669 -14.87563 0.7240309 -0.06437214 -0.6839668 
12.74172 10.4302 -1.071082 0.6929253 0.7161289 -0.07342595 
-32.95789 -0.9000977 -0.2886951 -0.9985059 -0.02773328 -0.007385893 
0.6300046 12.05494 0.9906089 0.7084712 0.7003086 0.06165454 
-25.26968 17.33872 3.540098 0.9973755 0.0484792 0.01045791 
3.379259 -5.792073 -8.721999 0.4041223 -0.3663418 -0.6993991 
-25.26968 -3.128958 -15.27179 0.788736 -0.09510536 -0.5329533 
-27.36641 -2.002333 -19.81115 0.06882565 -0.09919458 -0.9853291 
-30.79703 -13.28538 -0.1412191 -0.9431865 -0.3219251 0.0120011 
14.58011 -3.912702 6.20837 0.6891328 0.3508418 -0.557197 
-19.76649 -10.61083 10.51982 0.7115723 -0.4956734 0.4934469 
-19.81666 6.74918 13.33906 0.7117153 0.3166421 0.6239073 
-8.027416 10.46148 -7.829062 0.09985426 0.5477012 -0.4098831 
-26.25291 -2.59811 19.37073 0.5612843 -0.1074893 0.8137095 
0.6300046 11.51959 5.065406 0.7012284 0.6496237 0.2880367 
-26.44417 -16.48399 10.70954 0.476575 -0.7334332 0.4759489 
-20.05368 14.95862 0.4580621 0.712391 0.6993257 0.02216312 
3.505896e-15 -3.487016 -13.23437 0.7147928 -0.1773523 -0.6732359 
-4.101675 12.14418 -4.859583 -0.6094913 0.635797 -0.2544189 
-25.16768 13.99769 -5.336761 0.7269696 0.6408278 -0.2443174 
-29.77468 -1.913823 15.90196 -0.9854304 -0.02151432 0.1661774 
-30.94228 -3.483058 -10.46713 -0.8111846 -0.1644628 -0.4915937 
3.413662e-15 0.4049681 -13.81737 0.708795 0.02062367 -0.7030647 
-2.436712 9.573352 -10.5025 -0.2838893 0.4875389 -0.5348575 
-26.69197 16.55494 -10.8089 0.3669398 0.7741284 -0.5061539 
-19.9743 -14.08003 -5.160176 0.7121648 -0.6585023 -0.2413912 
-30.93303 -12.37224 3.609803 -0.9806455 -0.1834304 0.06826568 
13.41179 5.676921 9.019202 0.6702331 -0.1039902 0.7157285 
18.90014 -2.512239 9.104722 0.6893945 -0.1848425 0.6755069 
-25.26968 11.95597 12.19769 0.9393406 0.1223114 0.1404451 
-25.28525 17.89146 0.388151 0.9921288 0.1058946 0.003816285 
-9.34157 13.08804 -0.25098 0.3373098 0.6852121 -0.01313981 
15.19147 0.8833027 -7.997721 0.6935362 -0.07963655 0.713223 
3.475447 -4.877365 -9.256839 0.3907731 -0.3061846 -0.739584 
-27.10059 -19.72676 -2.638251 0.1862839 -0.9699775 -0.1301506 
5.625724 0.3320352 10.47727 0.7139882 0.0227352 0.6982135 
15.0748 -1.945401 7.807969 0.6928925 0.1730681 -0.6971577 
5.65988 3.745287 -9.802496 0.7143177 0.250809 -0.652439 
15.84422 1.514841 7.922143 0.6994925 -0.1335917 -0.7007771 
-3.449904 -3.827106 -12.70143 -0.7203801 -0.1991452 -0.6616211 
10.52094 4.526369 9.446871 0.4375463 0.2947727 0.7442232 
14.58011 -0.6821589 -1.180395 0.688768 0.0608329 0.1060466 
-29.65644 -18.41378 -0.4387534 -0.9460707 -0.3164732 -0.008204663 
6.077295 2.512888 -10.17206 0.7129251 0.1682297 -0.6788194 
3.129421 9.945403 -3.3207 0.72118 0.6556723 -0.2195567 
-7.43616 12.61871 -3.366716 -0.006980389 0.660641 -0.1762612 
17.82815 8.310152 -4.797869 0.1906454 0.3421536 -0.6124884 
-30.94228 -5.855159 -8.426091 -0.7367761 -0.3785532 -0.544469 
-29.77468 14.05666 10.68628 -0.998662 0.03849211 0.02942306 
1.291535 -7.46778 -7.325282 0.6772086 -0.4886203 -0.4793575 
-10.20346 8.849394 -9.620396 0.4930458 0.4633016 -0.5036668 
-30.94228 2.887772 12.44394 -0.9771706 0.04572367 0.1899592 
13.5001 -7.777041 -6.903609 0.7084188 -0.5184287 -0.4774907 
-30.41375 -4.216027 -13.62125 -0.9838964 -0.05333063 -0.1701042 
1.080008 -3.594781 9.882254 0.7259474 -0.2364057 0.6457301 
-30.94228 4.331086 9.333993 -0.7404052 0.2774512 0.5969964 
-16.48759 -3.533219 -14.52199 0.7022251 -0.1684784 -0.6886046 
-17.93218 6.904943 -13.26643 0.7063433 0.3264622 -0.6252465 
-29.63297 13.86529 12.241 -0.9355046 0.2633641 0.2323328 
-30.94228 4.477107 -10.95997 -0.8863624 0.1469139 -0.3421007 
-30.94228 -4.90579 11.56229 -0.9564266 -0.09199334 0.2171762 
-29.77468 -5.909355 15.46973 -0.9900098 -0.04630417 0.1194729 
-30.92172 -12.69258 1.886476 -0.8472197 0.1769015 0.252248 
14.94294 -5.910628 -5.468237 0.6924865 0.5278506 0.488556 
-29.77468 2.08479 -17.42546 -0.997858 0.007327314 -0.0553074 
-5.631975 -12.98466 1.432689 -0.3329801 -0.6797994 0.07500707 
-29.77468 8.829634 14.78879 -0.9950061 0.04310251 0.06951132 
-20.09311 -9.38212 -11.67093 0.7125034 -0.4381671 -0.5458836 
16.93113 9.457106 0.6061368 0.7026957 0.7079223 0.04444046 
-3.449904 -13.91481 2.668632 -0.6902325 -0.709632 0.1362675 
13.5001 -5.027095 -9.120236 0.7593125 -0.1560354 -0.6198068 
-25.26968 -8.958925 -14.15424 0.9050013 -0.1351745 -0.2305933 
-25.30042 -12.57046 -12.92777 0.9854913 -0.1135882 -0.1187108 
-25.72735 0.7393084 -19.03166 0.7945269 0.01972717 -0.6001787 
0.6300046 7.705626 10.39119 0.6991862 0.3025688 0.6160222 
-9.998528 -0.6940697 -13.04928 0.4560159 -0.03633735 -0.6831826 
-26.81126 10.29717 -16.96656 0.3141817 0.4905368 -0.8085176 
18.90014 7.79068 -2.033144 0.7279676 -0.6561178 0.1725115 
-29.77468 -0.9291135 15.98832 -0.9847718 -0.01044467 0.1708897 
-21.36737 -13.8465 5.660988 0.716136 -0.6441125 0.2628682 
-29.77468 -16.36343 0.827708 -0.9886213 -0.1399415 0.002615011 
-11.49968 -11.80593 8.005202 0.7021759 -0.5856147 0.3994029 
0.6300046 -11.60325 6.716496 0.6894671 -0.6284881 0.3514526 
15.72514 -8.578436 -0.5067607 0.7106424 0.1646021 0.02795916 
-23.8866 14.81854 2.059262 0.7233176 0.682009 0.09492096 
14.58011 -2.677402 -5.378646 0.6888702 0.2401203 0.4829485 
-30.94228 5.248988 11.44279 -0.9592153 0.09466492 0.2101676 
-0.5357621 -12.26152 -7.238314 0.4743145 -0.6244383 -0.3686233 
8.009451e-16 -13.44309 -3.985274 0.6974254 -0.6843404 -0.2029088 
5.687264 5.599182 8.865392 0.07994988 0.3417784 0.8381204 
-10.57909 -9.106284 9.363504 0.5609183 -0.4767509 0.4902175 
5.081628 -6.386173 8.301273 -0.03615908 -0.4085513 0.6469289 
7.385272 -1.751904 10.34515 0.7091125 -0.1171963 0.6943381 
11.65338 -4.21462 -9.606723 0.633594 -0.2850234 -0.680142 
-22.77723 11.47078 -9.659872 0.7201551 0.5303248 -0.4466765 
-32.1661 -6.634422 -4.124647 -0.92223 -0.2350054 -0.1226454 
-25.70376 14.8289 11.93039 0.8050298 0.4572943 0.3664769 
17.24207 9.075642 -5.180528 -0.430318 0.226929 -0.761648 
-25.58338 -18.66587 -2.570288 0.8586204 -0.5051315 -0.06858369 
0.006736574 -11.3073 7.298473 0.7268406 -0.5752455 0.3712765 
14.58011 -3.360299 6.917766 0.6889384 0.3013183 -0.6210543 
18.57441 -2.707946 -9.09452 0.6931989 -0.2052465 -0.6899517 
0.6300046 -11.79582 -3.96792 0.703617 -0.6724554 -0.2259571 
-32.66486 1.107789 4.430905 -0.9927425 0.02375483 0.1049263 
-32.17439 6.402236 4.578531 -0.9228258 0.2295003 0.1319831 
2.274333e-15 7.754852 -11.83603 0.6907523 0.3948886 -0.6026998 
-31.94307 -0.1976817 -9.136575 -0.7239116 -0.02168278 -0.6012123 
-12.09411 10.43785 10.6928 0.6897005 0.5037295 0.5162743 
16.8287 8.793218 -3.594221 -0.6450436 0.6455367 -0.2654713 
3.078856 -9.25252 4.890246 0.4466919 -0.7172898 0.3084341 
-32.55259 0.1751087 5.781226 -0.9901102 0.003766054 0.1350983 
-25.48355 -12.10999 14.2143 0.9032394 -0.2719982 0.3200814 
-5.325239 -11.57985 6.069788 -0.3884045 -0.6062523 0.317778 
-29.77468 -14.80663 6.227956 -0.9863682 -0.1490704 0.06145598 
4.333127 1.668245 10.36118 0.7174684 0.110178 0.6871348 
-1.744977 -12.61696 6.532906 -0.007987052 -0.6425397 0.3326991 
5.621288 10.08469 -2.828782 0.7136968 0.6722715 -0.188706 
-18.5803 -14.3123 4.315784 0.7081909 -0.6734833 0.2018979 
-0.9017541 9.35078 -10.72508 0.3283368 0.4762041 -0.5461923 
-25.26968 13.79628 10.90048 0.986398 0.05868358 0.0474879 
-24.18639 -13.70347 -5.96772 0.7241722 -0.6297704 -0.2746389 
7.2005 10.22739 2.31388 0.7088428 0.6865205 0.155749 
-32.93216 -1.921644 0.09173038 -0.9973971 -0.05920856 0.002346805 
11.40215 -10.4734 -0.5195629 0.6967598 -0.715223 -0.03580063 
3.43859 7.824438 6.971919 0.1751499 0.5121163 0.456701 
16.28821 -1.283333 9.389955 0.7072182 -0.09594668 0.6982611 
13.20458 9.00379 6.129627 0.6241967 0.707228 0.1457145 
-28.53688 19.69772 0.5998496 -0.4485618 0.8876338 0.0283935 
-29.77468 -7.743123 -15.84663 -0.9985822 -0.02175438 -0.04405623 
-1.618343 12.76393 -6.217738 0.0425216 0.6500241 -0.3166487 
10.3508 -8.725375 6.704894 -0.01353735 -0.559608 0.451686 
-29.77468 14.55063 8.063063 -0.9905623 0.1069307 0.06085984 
-28.71444 -4.738833 -18.99802 -0.5271633 -0.202363 -0.8191807 
-19.96364 4.069837 14.3782 0.7121344 0.1888741 0.6728967 
-9.007475 11.80412 -5.588845 0.2769418 0.6179935 -0.2925987 
16.7328 0.9972959 7.987748 0.7074325 -0.08858583 -0.6985256 
-24.60876 -2.396627 14.78902 0.7253762 -0.110001 0.6786263 
14.48717 8.414803 4.353292 0.7197282 0.614987 0.3173484 
14.58011 1.562608 2.889288 0.6886396 -0.140861 -0.2593216 
-28.00048 15.29862 12.78749 -0.2113562 0.7477264 0.6249714 
-22.60905 8.774345 -12.09649 0.7196757 0.4053274 -0.5601361 
15.32249 1.68878 9.344659 0.7140185 0.1244036 0.6881888 
-29.77468 16.99443 4.44644 -0.9980599 0.0523374 0.01300913 
18.09812 -1.746331 -7.860219 0.7190914 0.149684 0.6762649 
18.80595 3.530126 8.793974 0.6891168 0.2691967 0.6707874 
-8.553393 -11.21882 -6.747478 0.1948934 -0.5873507 -0.3532578 
15.30814 -5.857371 7.458223 0.7137983 -0.4315632 0.5494959 
-29.77468 -2.998691 -16.97151 -0.9949663 -0.01482 -0.08113886 
1.080008 -10.07724 -3.540942 0.7135183 -0.6601934 -0.2328976 
-20.05875 -12.95744 7.544781 0.7124055 -0.6057613 0.3528233 
-29.86611 -15.08294 4.365736 -0.9851784 -0.1637036 0.04863184 
-29.77468 -10.0616 -13.48175 -0.9921491 -0.06087431 -0.08881164 
-3.2985 13.72453 3.627634 -0.6276177 0.6989443 0.1847432 
-25.26968 12.98178 9.039426 0.8142945 0.3815173 0.2909425 
13.5001 9.252963 -4.761498 0.7432051 0.6325265 -0.1795378 
-10.3864 -13.07601 0.388549 0.5261012 -0.684582 0.02034211 
17.5406 -1.266057 9.392467 0.6983501 -0.09618761 0.7072091 
-14.75026 -12.07923 -8.799002 0.6972725 -0.5764046 -0.4210918 
-25.26968 -15.96054 -3.416074 0.8621148 -0.3558764 -0.09028981 
-17.60342 14.58567 -3.295531 0.7054061 0.6890322 -0.1546117 
-12.33148 14.84226 -1.788094 0.6903772 0.7157954 -0.08610342 
13.5001 10.13648 2.427019 0.6933407 0.7004699 0.1678389 
-11.49968 -7.232146 11.96707 0.7086729 -0.3636232 0.6027488 
-6.390738 -8.297674 -10.13336 -0.1958785 -0.4344169 -0.5305225 
-3.638442 8.372689 -10.08083 -0.6931932 0.4383442 -0.5277725 
-15.47559 -12.82951 -7.727495 0.6993403 -0.6109117 -0.3682112 
-19.95187 14.41601 -3.928711 0.7121008 0.6746603 -0.1824218 
17.93724 -7.659674 -5.602836 0.6975544 -0.5775453 -0.4224179 
-30.55021 1.316448 13.85013 -0.9648539 0.01793358 0.2476625 
-5.366078 0.1856607 13.09376 -0.3810252 0.009720089 0.6855114 
14.58011 5.204916 -1.580661 0.6881127 -0.46787 0.1419625 
-25.40035 -2.815751 -18.25221 0.940464 -0.05123245 -0.3332504 
-13.67092 -12.94455 -7.563197 0.6941957 -0.6209434 -0.3628398 
-16.58999 -12.25011 -8.554957 0.702517 -0.5801204 -0.4066556 
-29.33447 12.13522 -14.69614 -0.8022964 0.3765244 -0.4549668 
-23.34232 -6.575925 13.41986 0.7217661 -0.3028071 0.6192863 
-29.76756 -11.18716 13.84884 -0.9958252 -0.0465765 0.05684752 
-29.4137 18.30427 -4.657912 -0.8375718 0.5229585 -0.1303788 
10.52673 -10.36322 1.531074 0.6992446 -0.7052579 0.1040173 
13.5001 6.384593 8.500552 0.698684 0.3600583 0.6139081 
-32.54216 -5.295398 0.5066352 -0.9905758 -0.1253499 0.01126368 
15.62611 4.75943 -6.487654 0.6975106 -0.4229697 0.5747994 
-5.80189 -5.383834 -11.89972 -0.302278 -0.2818656 -0.6229985 
-27.18976 -18.80049 6.703537 0.1468818 -0.9293524 0.3313857 
-9.650281 0.09551007 13.10164 0.393091 0.005000338 0.6859243 
-28.24717 19.55429 -3.526215 -0.320403 0.9302915 -0.1677402 
-21.91642 6.359556 -13.52075 0.7177012 0.2958127 -0.627026 
-28.92952 -10.28315 -16.51583 -0.6224551 -0.4112666 -0.661255 
-4.170109 7.167335 10.92483 -0.5971259 0.375239 0.5719593 
14.58011 1.315917 -0.4395366 0.6885946 -0.1186292 0.03948909 
-27.34536 19.6916 -3.347676 0.0781289 0.9786377 -0.1664192 
12.43474 9.242397 -4.919671 0.5945463 0.6849164 -0.1894852 
-32.64676 3.631809 2.486221 -0.9924363 0.09112996 0.05297318 
-11.49968 -10.38315 -10.69554 0.6887726 -0.5031621 -0.518152 
-25.30294 -17.96214 -1.891821 0.9843883 -0.1730081 -0.0186003 
-22.71019 -3.710194 14.47456 0.7199639 -0.1722849 0.6692485 
-32.90881 -0.1856358 -2.047825 -0.9974681 -0.005719699 -0.05239096 
-10.47444 9.580242 8.889546 0.5420097 0.5015646 0.4654038 
-32.54507 -2.288256 4.822572 -0.9907943 -0.04920692 0.1095962 
14.58011 6.117146 -2.806876 0.6880386 -0.5498013 0.2522249 
-9.490092 12.06099 5.037983 0.3641463 0.6314418 0.2637589 
0.6300046 -11.64814 0.4439935 0.7152255 -0.6962767 0.02778007 
13.50176 4.110791 8.525311 0.7269379 0.2970954 0.6162721 
-29.77468 -2.683465 16.3549 -0.9899679 -0.02287913 0.1262381 
-15.99782 13.89601 -5.554802 0.7008289 0.6607949 -0.2632562 
9.868178 7.62839 7.814822 -0.1185078 0.503715 0.5077097 
9.09136 -8.585926 6.857286 -0.2932264 -0.5242326 0.4871923 
-32.83756 -2.189102 1.474697 -0.9954853 -0.06291126 0.03539428 
7.867587 -4.22756 -9.582727 0.5385375 -0.276876 -0.7097548 
-21.57994 14.84714 1.732292 0.7167419 0.6898084 0.0811028 
-27.7643 10.88048 -16.67818 -0.1069802 0.5393023 -0.827178 
0.6300046 11.23545 -2.905939 0.7159209 0.6731246 -0.1765551 
14.58011 -1.911838 4.497467 0.6890005 0.171138 -0.403578 
18.90014 -6.859311 4.414072 0.7354106 0.5270956 -0.3449012 
-25.36267 -13.73183 -12.13142 0.9574591 -0.2077633 -0.1803222 
-1.698347 -12.38066 -7.039659 0.01061141 -0.6305056 -0.3585064 
-21.8301 3.552461 14.51683 0.7174551 0.1642722 0.6739888 
12.47436 -3.714127 9.799471 0.6952507 -0.2545894 0.6705253 
-8.554175 3.634757 12.54689 0.1950347 0.1902943 0.6568808 
-32.21947 7.617006 0.7661574 -0.9854107 0.1629722 0.01458225 
4.034941 -0.08213712 10.49438 0.7183656 -0.005624115 0.6949707 
3.145802 2.131181 -10.26475 0.7208368 0.1409408 -0.6772605 
-32.27654 6.761345 -1.902237 -0.9863995 0.1464317 -0.04058615 
0.6300046 10.42919 -5.954595 0.7107646 0.6228125 -0.2663718 
-18.98877 -7.34049 -13.06333 0.7093554 -0.344884 -0.6133379 
-2.475742 7.068252 12.36732 -0.2994563 0.3599625 0.6298265 
14.4913 7.405325 -5.923818 0.5846253 0.538843 -0.4837292 
2.345275 -8.31022 6.374827 0.5492005 -0.6145487 0.4101537 
14.7001 7.829597 1.860225 0.6890965 -0.7025743 -0.1669897 
-5.431234 12.94966 1.832685 -0.3692522 0.6779674 0.09594848 
-25.26968 15.94866 6.088191 0.9341972 0.1814812 0.07902044 
-11.49968 3.039236 -13.4927 0.7114159 0.1549433 -0.682731 
4.294166 -8.726542 -5.790302 0.2758464 -0.7512823 -0.3607589 
0.6300046 -9.214288 -8.442739 0.7152507 -0.5561248 -0.4188505 
-5.463653 -0.4422641 -13.07131 -0.3633944 -0.02315431 -0.6843359 
13.5001 7.055337 -8.348442 0.698922 0.4908631 -0.5197104 
-21.27665 -12.50797 8.186698 0.7158774 -0.581122 0.3819683 
-29.76881 -13.67733 11.40722 -0.9963734 -0.05294186 0.04374097 
-3.449904 2.760898 13.91512 -0.6893967 0.14083 0.7092735 
-29.8171 -15.66532 -2.554628 -0.9836763 -0.1743848 -0.02719925 
-11.49968 -4.303284 -14.29909 0.6883397 -0.2082892 -0.6922904 
-5.771965 5.522449 -11.83508 -0.3076853 0.2891226 -0.6196145 
-19.88565 14.38398 4.048254 0.711912 0.6726868 0.1905151 
-29.38896 4.007504 18.51498 -0.8265592 0.1155685 0.5430124 
-16.24876 6.476561 13.46619 0.7015443 0.3087245 0.6388046 
-20.73251 -0.9486233 -14.91571 0.7143261 -0.04341035 -0.6955273 
14.58011 3.764625 -3.520934 0.68811 -0.3384748 0.3163317 
-15.08345 11.14017 -9.990481 0.6982223 0.5311679 -0.4768029 
-14.47106 -11.91062 9.039801 0.6964766 -0.5689374 0.4331416 
-9.031296 4.476239 12.32142 0.281246 0.2343493 0.6450763 
0.6300047 -10.28831 -7.189093 0.7074172 -0.6527755 -0.1926014 
-11.49968 -6.262622 -12.5586 0.7070535 -0.3125496 -0.6309514 
-32.899 -0.546729 1.995644 -0.9970566 -0.01684549 0.05105598 
-27.39437 -7.457248 18.49388 0.05647264 -0.3709579 0.9207941 
4.374999 7.890154 6.90764 -0.04381624 0.5165251 0.4526582 
-18.9037 -4.0193 -14.39174 0.7091128 -0.1901498 -0.6756783 
-29.76512 7.656793 16.05735 -0.994757 0.03820275 0.07342029 
-23.6616 -12.68314 -7.936521 0.7226762 -0.5839183 -0.3661397 
-13.08185 -6.467514 -13.47041 0.6925164 -0.3113814 -0.6475114 
-16.33359 11.90584 9.046626 0.7017861 0.5643868 0.430398 
-21.56591 3.519353 -14.5257 0.716702 0.1628882 -0.6751382 
-32.8161 0.5033914 -3.452424 -0.9954693 0.01168047 -0.08635617 
-27.3744 -19.96696 -0.2294471 0.06529332 -0.9933114 -0.01147233 
-23.51563 -0.5308755 -14.95225 0.72226 -0.02429362 -0.689248 
-29.70725 13.09437 -12.63449 -0.9689897 0.1632369 -0.1653302 
-14.19656 -0.7154958 14.9361 0.6956941 -0.03461893 0.7149708 
-7.607984 11.51496 -6.20894 0.0240666 0.6028551 -0.3250632 
14.58011 -3.252378 -4.417646 0.6889442 0.2917361 0.3967027 
-30.07997 7.747775 13.05218 -0.9774143 0.1040696 0.1718604 
-6.383185 0.5919356 13.05821 -0.1972433 0.03099022 0.6836504 
7.852523 -8.285097 -7.158115 -0.5718607 -0.5177866 -0.4936383 
-29.84872 0.1401861 15.80464 -0.9746569 0.001574976 0.2118496 
-32.35224 2.456409 -6.263972 -0.979808 0.05704476 -0.1493066 
-32.03848 7.099459 -4.893531 -0.8278454 0.3794938 -0.2019174 
-4.215259 -2.256652 -12.91257 -0.5889677 -0.1181448 -0.6760255 
5.554152 -9.241717 -4.893204 0.1213803 -0.8467874 -0.2967303 
14.49734 4.119098 8.522619 0.7198596 0.3011936 0.6222514 
-17.11581 -13.45559 6.499299 0.704016 -0.6371457 0.3064424 
-25.26968 -9.863195 12.15149 0.7936938 -0.3399941 0.406219 
-26.48831 12.38997 15.33237 0.4570446 0.5564432 0.6880876 
17.92511 -7.910552 -3.175 0.4720893 0.1641753 0.5894262 
2.197716 8.184623 -6.552267 0.5546985 0.5889493 -0.4236674 
-20.59223 0.9803628 14.91293 0.7139263 0.0448628 0.6958011 
-29.77468 -16.13775 -6.74353 -0.9973629 -0.05488341 -0.02501099 
12.78547 2.854453 -10.10249 0.6945853 0.1954662 -0.6921124 
-29.53095 15.09193 11.01038 -0.8898873 0.3579138 0.2679344 
0.6300046 3.46953 -11.75333 0.7061998 0.2012598 -0.6765176 
18.90014 -1.560841 8.660687 0.7068924 0.0001773238 0.0394612 
1.256952 6.042979 8.538656 0.7021747 0.3938379 0.5684562 
5.491917 7.776118 7.02339 -0.3049918 0.5092753 0.4603447 
-30.94228 6.706127 7.592261 -0.7263536 0.4540907 0.5080444 
-5.295297 11.44201 -6.365379 -0.3938148 0.599036 -0.3332534 
-25.26968 8.500663 -15.5262 0.9973644 0.0239276 -0.0435258 
-20.35878 13.9876 -5.358385 0.7132608 0.6532776 -0.2500063 
-18.61465 -14.84779 1.724916 0.7082888 -0.6983835 0.07992923 
17.65834 -7.617823 6.592083 -0.03059465 -0.1953816 0.6931121 
4.121257 -8.198236 -6.530216 0.122594 -0.6007223 -0.42141 
-5.332719 12.5524 -3.614216 -0.387053 0.657169 -0.1892189 
-25.75955 8.458981 17.09637 0.7801902 0.2771129 0.5546995 
-22.45349 -0.6186801 14.94457 0.7192321 -0.02970891 0.6918089 
1.854564 6.722257 -8.062067 0.5604503 0.439353 -0.5362574 
-29.67925 6.51103 17.15251 -0.9563617 0.09784281 0.2615809 
4.577138 -9.948598 -3.315009 0.716945 -0.6599934 -0.2202726 
-14.82565 -4.672929 -14.2166 0.6974874 -0.2240459 -0.6786126 
-25.26968 -6.341001 -14.58435 0.8221205 -0.1605717 -0.4338071 
1.080008 1.109049 -10.56612 0.7147706 0.07273959 -0.6928568 
8.762828 -1.594454 -10.37567 0.7053055 -0.1070037 -0.7002125 
-3.449904 4.49824 12.72226 -0.7136804 0.2332665 0.6594036 
1.863976 10.38867 1.301106 0.7240367 0.6823505 0.08539624 
13.27889 -10.15834 2.608741 0.6912819 -0.6990106 0.1796166 
-30.94228 10.64343 -6.582486 -0.9515707 0.2118036 -0.123783 
-25.26968 -9.998321 -13.96393 0.9486834 -0.08581985 -0.139945 
-30.94228 7.771838 -9.871674 -0.95652 0.1490246 -0.1734626 
-2.510143 -13.41161 4.795456 -0.3131776 -0.6830086 0.2442165 
-31.99068 7.847127 -3.753791 -0.8077564 0.4233834 -0.1909026 
13.99468 9.031865 -2.868394 0.5868053 0.6991634 -0.1747295 
-31.95325 -7.319406 -5.397192 -0.7632949 -0.4500609 -0.297172 
2.029435 8.130883 6.626837 0.5613021 0.5657952 0.4305324 
1.118859e-15 -12.92878 -5.55824 0.6947998 -0.6582327 -0.2829947 
-11.76172 -8.939953 11.98053 0.6887531 -0.4321811 0.5790241 
-3.200028 -14.09282 1.796612 -0.588342 -0.7177001 0.09149543 
-30.62491 -4.537641 12.94506 -0.9833843 -0.05945041 0.1712806 
-30.33758 -9.660753 -10.77609 -0.9803442 -0.1279121 -0.1419692 
-19.07549 3.917821 14.41893 0.7096025 0.1823582 0.6772597 
2.863542 -9.565552 -4.22091 0.4768562 -0.7252452 -0.2669023 
-32.47823 -5.37377 -1.571434 -0.9896343 -0.1242016 -0.03216057 
-29.49231 4.814872 -18.13209 -0.8726069 0.1254745 -0.4667981 
-29.77468 -3.729032 15.78115 -0.9875647 -0.03653249 0.1456341 
14.6434 7.880401 -1.670621 0.6885812 -0.7076746 0.1499425 
17.66386 5.824242 7.482227 0.6973801 0.4397639 0.5637897 
-30.94228 3.273877 11.39889 -0.888595 0.09791721 0.3553493 
0.6300046 7.739906 -10.79067 0.6916829 0.3793447 -0.5989517 
-32.30607 -2.803562 -6.394523 -0.9569325 -0.08003105 -0.1832732 
-2.355498 -14.09234 -1.802088 -0.2514965 -0.7176757 -0.09177427 
7.046856 -9.147585 5.094948 0.038501 -0.8753384 0.3076437 
7.608975 8.843504 -6.538888 -0.6189972 0.6188172 -0.3714548 
11.7051 10.47262 -0.3747804 0.6958945 0.7160385 -0.02582426 
-0.06477642 -13.39722 4.849139 0.6621696 -0.6822759 0.2469504 
-11.49968 11.79323 -9.016402 0.6902922 0.5729318 -0.4382025 
-25.26968 -2.737657 15.62803 0.8131338 -0.08399373 0.4766166 
5.936337 7.129266 -7.670924 -0.4089131 0.4672919 -0.5025019 
-25.26968 -16.97128 -0.3006581 0.9248245 -0.2206517 -0.0007799037 
8.25971 4.851013 9.275381 0.2082366 0.3024504 0.8187548 
-12.47927 14.93881 -0.6845396 0.6907986 0.720051 -0.03263511 
-25.26968 15.65877 7.476716 0.9663515 0.1078766 0.05822591 
-10.37051 12.22644 4.683168 0.5232303 0.6401039 0.2451829 
16.40282 2.242213 -7.727244 0.7045683 -0.1983631 0.678175 
-9.180507 8.914162 -9.555626 0.308207 0.4666925 -0.5002759 
14.58011 6.957213 -0.7066514 0.6880299 -0.6252856 0.06348455 
14.70474 -0.0878828 -9.493231 0.7185224 -0.005578626 -0.6946428 
-14.64511 -14.19109 4.768147 0.6969728 -0.678184 0.2276308 
15.74042 2.591788 9.104917 0.7110382 0.1926599 0.6731617 
-24.26631 14.04146 -5.242884 0.7244 0.6452511 -0.2409022 
-3.449904 11.77397 6.481244 -0.7151688 0.610823 0.3365426 
-30.74821 -6.314851 -11.80845 -0.9831676 -0.08372815 -0.1621072 
12.54872 -7.974889 -7.468324 0.4843879 -0.5111396 -0.5002852 
8.251123 8.198021 -7.245191 -0.4822091 0.5159208 -0.4955041 
10.5518 -7.909461 -7.533751 0.03524953 -0.5097376 -0.5016872 
-17.04364 12.06277 -8.822515 0.7038103 0.5700138 -0.4188384 
-23.68769 -4.995739 -14.13011 0.7227506 -0.230158 -0.650861 
18.90014 -8.010929 4.244567 0.7018763 -0.284849 0.1038489 
-18.02906 -14.06733 -5.187417 0.7066195 -0.6631104 -0.2446101 
-11.94673 -10.4418 10.68885 0.6892805 -0.5042432 0.5163538 
-6.737545 -13.00483 1.20214 -0.1332137 -0.6808554 0.06293686 
3.658325 -10.46987 -0.4385194 0.7188867 -0.6928306 -0.02930165 
-21.22711 1.978365 -14.82561 0.7157362 0.09089607 -0.6899596 
-6.129426 6.54507 -11.35822 -0.2430953 0.342661 -0.5946491 
-29.77468 17.4391 -0.6997452 -0.9969934 0.06362708 -0.001815119 
-28.34188 3.839575 -19.43407 -0.36229 0.1801755 -0.9110043 
-29.66268 17.99224 3.784843 -0.9488851 0.3006768 0.05903772 
16.5238 -3.169754 -7.402755 0.705394 0.2768337 0.6499214 
2.123714 -6.346362 8.329352 0.5802394 -0.4097027 0.6032636 
-30.49318 7.068456 12.16188 -0.9755744 0.1063454 0.1800933 
-18.83719 -4.335261 14.30708 0.7089232 -0.2046736 0.6719825 
-25.26968 -12.62963 -10.20736 0.8521385 -0.3007623 -0.2513575 
-24.89493 11.78181 9.223768 0.7261921 0.5399723 0.4227809 
-24.53453 -4.561151 14.24655 0.7251647 -0.2094431 0.6539162 
9.026328 1.974039 -10.29631 0.7046677 0.1332688 -0.69539 
-8.58095 -9.06668 -9.403109 0.1998726 -0.4746774 -0.4922909 
-7.019159 -0.890297 -13.03211 -0.08232863 -0.04661065 -0.6822838 
-30.06098 -2.686965 -14.9883 -0.9847593 -0.03247716 -0.170675 
17.72448 -6.966224 4.044311 0.5991449 0.6260528 -0.4306931 
14.58011 1.490059 1.557328 0.6886192 -0.1343147 -0.1397595 
-4.880935 -2.710376 12.79458 -0.4686863 -0.1418992 0.6698483 
-25.95469 -9.014021 -17.06951 0.6935153 -0.3353561 -0.6298503 
-11.49968 -12.9853 -2.983301 0.7219433 -0.6722549 -0.1534296 
7.526137 5.879656 9.032931 -0.637401 0.007836313 0.7233018 
-22.1645 7.734051 -12.82491 0.7184083 0.3583571 -0.5945697 
-25.27966 17.66419 2.256194 0.9945719 0.08354317 0.01250406 
-12.54698 -10.02006 -11.11059 0.6909916 -0.4825235 -0.5356573 
-26.91768 4.593863 -19.30152 0.2671373 0.2204772 -0.9308074 
-29.77468 4.506801 -15.31537 -0.9856918 0.04767519 -0.1605605 
-13.4771 -14.20131 4.72999 0.6936432 -0.6818146 0.226926 
-11.42214 12.72866 2.95638 0.7132493 0.6663972 0.1547785 
0.269186 13.31248 2.143358 0.710488 0.693383 0.1118908 
-11.47509 -0.6062607 -13.05696 0.722817 -0.0317402 -0.6835848 
-2.602607 -0.05516041 14.24517 -0.3500574 -0.002809131 0.7254592 
-25.26968 8.761669 -13.52907 0.842967 0.2378049 -0.3365401 
-14.34828 14.03951 5.247078 0.6961266 0.6717902 0.2507862 
-29.77468 7.944778 14.59165 -0.9903337 0.06077588 0.1088615 
-25.26968 -14.74415 9.169901 0.9649503 -0.1002975 0.07585387 
-10.11615 -4.079109 -12.42783 0.4772689 -0.2135579 -0.6506473 
-15.90199 10.61295 10.5177 0.7005558 0.5038672 0.5008087 
-19.78374 -9.893829 11.23682 0.7116215 -0.4628308 0.52622 
1.957226 -0.2007601 10.48436 0.7241321 -0.01343425 0.688508 
-16.55565 14.87328 1.433521 0.7024192 0.705191 0.06936023 
18.90014 -1.825381 -8.319145 0.7148204 0.00712803 0.2352116 
14.58011 -1.729992 -2.334489 0.6888433 0.1549642 0.2096704 
-10.91172 7.551308 -10.65597 0.6210219 0.3953416 -0.5578834 
-6.690005 12.99909 -1.26773 -0.1418037 0.680555 -0.06637079 
13.48427 -0.8789976 10.43984 0.6922475 -0.06018696 0.7175538 
-11.49968 -11.3307 -7.362785 0.7179851 -0.5824316 -0.376429 
0.6300046 11.15512 -1.11803 0.721807 0.6863298 -0.06995361 
-7.347659 -12.93431 2.008187 -0.02297166 -0.6771634 0.1051367 
17.13538 -5.167948 6.19296 0.7106253 0.4499006 -0.5393478 
5.568963 -10.26448 -2.157208 0.7134796 -0.6844406 -0.1443565 
-28.04545 5.127616 19.18095 -0.2312311 0.2482276 0.9332451 
1.26107 -1.848994 10.33419 0.725907 -0.1209617 0.6769307 
16.14394 3.771605 7.117144 0.702216 -0.3331308 -0.6266837 
-32.46948 -4.275058 4.129204 -0.9896898 -0.09709346 0.08783139 
9.106865 -9.282771 4.834302 0.2004692 -0.8244998 0.3011079 
-17.686 -6.168277 -13.60995 0.7056416 -0.2924038 -0.6419013 
-9.437222 -11.08994 -6.931533 0.3545932 -0.5806035 -0.3628939 
-2.273312 -4.14504 13.58589 -0.2187163 -0.211093 0.6918839 
-30.47597 5.959558 -12.76525 -0.9839373 0.0749982 -0.1614707 
-18.96688 5.53923 -13.90327 0.7092929 0.260716 -0.6526549 
-3.449904 6.698128 11.53459 -0.719298 0.3486112 0.6003095 
-30.94228 6.704918 -8.879833 -0.81863 0.302303 -0.3981941 
-32.04203 8.56684 1.192371 -0.8671899 0.3552141 0.0897236 
12.15612 7.446531 7.996681 0.3960867 0.4998183 0.5116066 
-25.70754 -16.08477 10.14622 0.8033442 -0.4960329 0.3152987 
8.250026 9.025707 5.758847 -0.4765726 0.7193171 -0.05880035 
-12.35787 14.30908 4.327808 0.6904525 0.6899231 0.2089732 
-32.03812 -2.959646 7.936635 -0.7955228 -0.1727951 0.4498852 
-25.26968 8.452055 14.74311 0.9249116 0.1080982 0.1919779 
-19.9736 12.93219 -7.580851 0.7121627 0.60475 -0.3546901 
-30.94228 -8.347759 8.949471 -0.9259127 -0.2025083 0.2114038 
7.532518 -10.12969 -2.682237 0.7080839 -0.6807671 -0.1802705 
0.6300047 -9.849806 8.282733 0.7025769 -0.6012451 0.3314313 
4.592657 -9.260448 -4.859433 0.2340951 -0.802708 -0.2985678 
-1.546508 -4.841461 13.39928 0.07117325 -0.2465594 0.6823807 
0.6300046 -11.3625 -2.324593 0.7161333 -0.6817381 -0.1402982 
-15.85104 14.81764 -2.069548 0.7004105 0.7047007 -0.09797524 
-30.94228 -8.038627 -8.896361 -0.9031725 -0.2318398 -0.2431863 
3.744929 9.450171 -4.460303 0.3531034 0.7672994 -0.2775573 
-30.72316 9.934453 -9.066872 -0.9832257 0.1344076 -0.1229507 
-15.68949 14.57548 3.333576 0.69995 0.6934385 0.1592148 
-29.77468 1.933493 17.07785 -0.99506 0.01189083 0.08053932 
-30.94228 6.222717 -10.54415 -0.9255695 0.155044 -0.2497091 
0.6300046 8.405625 -8.995931 0.7204036 0.4128188 -0.5540686 
-25.26968 11.71427 -12.92205 0.9732016 0.07737426 -0.07294686 
-18.55878 10.88588 10.24477 0.7081295 0.5112575 0.4827241 
-25.26968 -3.562346 17.18228 0.9829546 -0.02227001 0.0803683 
-29.39595 10.51901 -15.72103 -0.829671 0.3099843 -0.4544101 
4.569786 4.549575 9.40773 0.2865604 0.2820786 0.7912875 
-5.379436 -7.942599 10.38198 -0.3786116 -0.4158273 0.543539 
-11.49968 14.6842 -2.409306 0.6901615 0.7133024 -0.1170693 
-30.94228 -6.699779 -7.908242 -0.7491343 -0.4167702 -0.4807243 
7.580547 8.996785 -5.404863 -0.1045742 0.9222844 -0.3184547 
-31.95069 -6.599593 -6.360442 -0.7572187 -0.4011312 -0.3715814 
3.407436 8.564406 -6.017285 0.4002404 0.6908623 -0.3806314 
-13.7333 14.95485 -0.5011623 0.6943734 0.7172987 -0.02314031 
-30.79993 -10.66585 7.828783 -0.9830239 -0.1478609 0.1079714 
9.016972 5.822334 9.030748 -0.3061779 -0.02378169 0.7220981 
-11.49968 -9.756733 11.09748 0.6920842 -0.4762165 0.5404216 
-25.26968 -11.10612 -12.68278 0.9137514 -0.1593061 -0.1884193 
-1.61313 8.924972 -11.08051 0.04460068 0.4545191 -0.5642933 
-21.96207 -14.72377 -2.780144 0.7178313 -0.6829641 -0.1293252 
-3.003001 11.83252 7.850989 -0.5097567 0.6025907 0.3998247 
-29.77468 -0.6620826 -16.91685 -0.9925708 -0.007438423 -0.1024188 
16.41238 -4.927671 -8.104197 0.707152 -0.3667469 -0.6026801 
0.6300046 -4.583323 -10.24337 0.7216892 -0.2826663 -0.629633 
-28.22087 -19.45779 3.913518 -0.3087752 -0.9284478 0.1865534 
-3.449904 -6.054772 11.86197 -0.7186419 -0.314759 0.6171547 
-0.8387091 -11.33361 -8.563507 0.3534826 -0.5771828 -0.4361109 
-30.68523 13.49754 -0.8793782 -0.9209228 0.1619933 -0.07958396 
-11.49968 8.969791 10.95334 0.7052039 0.4481015 0.5478249 
-6.257275 -11.97452 -5.223422 -0.2199943 -0.6269146 -0.2734674 
-21.41617 -8.065622 12.59275 0.7162751 -0.3760847 0.584757 
-23.13508 14.93425 0.7366958 0.7211752 0.6894186 0.03477131 
0.6300046 -7.784625 9.300985 0.7189914 -0.1576361 0.6544168 
-20.39327 2.768725 -14.72683 0.7133591 0.1291202 -0.6876417 
7.475946 4.530669 -9.4306 0.3644159 0.2879777 -0.7669458 
-29.77468 16.02316 4.803531 -0.991524 0.1099885 0.02922273 
-30.73775 1.971837 13.26722 -0.9791791 0.02870991 0.1945956 
3.648958 0.8449439 10.43171 0.7194239 0.05613599 0.6897783 
-6.169582 -12.97871 -1.500607 -0.2358394 -0.6794884 -0.07856285 
-32.12398 -6.916163 4.047674 -0.8964891 -0.2766178 0.1411921 
-29.77468 -11.28937 -12.84889 -0.9941638 -0.06081877 -0.06570392 
-29.3436 15.89368 -10.4023 -0.8063636 0.4861848 -0.3219363 
-23.32228 0.4264067 -14.96139 0.7217088 0.01951297 -0.6902186 
-3.449904 -8.051108 -10.93712 -0.7093911 -0.4155565 -0.5655093 
-10.26413 -12.84509 -2.52187 0.5040086 -0.6724926 -0.1320301 
-15.5162 -0.7313087 -14.93472 0.6994559 -0.03346573 -0.7113012 
-32.62472 -1.303371 4.658604 -0.9920039 -0.02802561 0.1090298 
-15.44248 -3.841188 -14.43947 0.6992458 -0.1838979 -0.6875526 
-0.7464626 11.92744 -7.715427 0.3902755 0.6074247 -0.3929211 
-29.77468 -14.12398 -8.614151 -0.9899114 -0.1093651 -0.06801678 
-32.28014 -6.503457 -2.515608 -0.9865214 -0.1406755 -0.05162274 
-27.07891 -4.258895 -19.43583 0.195871 -0.2082345 -0.9536844 
-0.07541238 -7.359617 -12.17658 0.6579274 -0.3748008 -0.6201127 
-11.56902 14.99227 -0.07348765 0.6882038 0.7251989 -0.003521261 
-23.44387 -0.5514121 14.95046 0.7220554 -0.02613926 0.6892915 
-15.91975 11.41368 9.716974 0.7006064 0.5425711 0.4620335 
-2.926085 -9.695523 10.38033 -0.4790781 -0.4937607 0.5286357 
-11.49968 -12.55504 5.952594 0.7098544 -0.6325542 0.3024958 
-29.23712 -14.10294 12.95496 -0.7589726 -0.4776336 0.4384919 
-11.49968 10.55012 8.821593 0.7138683 0.5367818 0.4487899 
-7.086477 -5.201931 11.98454 -0.07016486 -0.2723422 0.6274393 
9.640735 2.891419 10.08229 0.70327 0.1957441 0.682277 
-29.74794 17.91306 -1.599851 -0.9872447 0.1484433 -0.01084968 
-8.720632 -0.143871 13.09741 0.2251119 -0.007532227 0.6857027 
2.811592 -0.6907888 -10.44336 0.7217393 -0.04576133 -0.6882255 
-17.19802 -0.2490363 14.97691 0.7042503 -0.01204951 0.7083697 
14.58011 7.133338 2.40499 0.6880189 -0.6410972 -0.2161256 
-29.77468 15.94637 -4.005376 -0.9894881 0.1299842 -0.02835645 
-32.22409 2.33096 7.087031 -0.8967132 0.1095892 0.2846572 
-28.82487 -12.80306 -14.77431 -0.5760907 -0.5311677 -0.6139401 
15.72514 -8.249457 -2.154837 0.6494038 0.1769113 0.09253913 
-21.22332 -4.315826 14.31229 0.7157253 -0.2014525 0.6658144 
0.6300046 10.03215 -6.970402 0.7122875 0.6594427 -0.07097159 
-14.71579 -9.203886 -11.79573 0.6971743 -0.4394191 -0.5636915 
-25.26968 -8.057341 -14.8461 0.9176223 -0.1003131 -0.2144922 
-29.02306 -18.47841 5.785125 -0.6639436 -0.7078469 0.2244746 
15.62424 -1.256584 7.966345 0.6975929 0.1111004 -0.7065359 
-3.449904 -8.69531 11.10616 -0.6918328 -0.4437353 0.5671798 
1.187176 1.64609 10.35622 0.7261165 0.1075956 0.6781767 
6.316212 4.398193 -9.490909 0.4095758 0.2800813 -0.7515448 
2.085446 -7.842199 -6.952081 0.4915636 -0.5130742 -0.455214 
6.64817 5.700782 8.795197 -0.1016719 0.3462854 0.8594673 
1.746858e-15 10.91513 -9.059844 0.691059 0.5558028 -0.4613303 
0.6300046 -2.572927 12.0697 0.7049863 -0.1496891 0.6911253 
-29.77468 16.14133 3.930589 -0.9906526 0.1196101 0.0240892 
-17.32785 -14.53681 3.47789 0.7046205 -0.6875715 0.1630935 
-29.77468 4.446164 16.27976 -0.9926819 0.02262283 0.1006819 
-29.85732 -15.72486 -0.6698599 -0.9817951 -0.1838074 -0.006818467 
-13.77266 5.642755 13.855 0.6944857 0.2708008 0.6642649 
-0.9393706 7.882509 -11.81045 0.3133332 0.40143 -0.6014668 
-31.08608 12.26648 -1.516863 -0.8389664 -0.2009631 -0.2744539 
14.58011 -3.075571 -0.5812056 0.6890062 0.2757688 0.05232921 
-0.4306746 1.128748 14.15125 0.5162293 0.05748334 0.7206758 
-27.2692 -18.12278 -8.227261 0.1117789 -0.8981217 -0.4082277 
-19.36727 -13.35677 6.711217 0.7104343 -0.6267934 0.3134795 
-32.41534 5.533509 2.399554 -0.9886867 0.124961 0.04948431 
6.217396 -10.0783 2.859277 0.711988 -0.6735225 0.1911033 
-19.73271 9.625095 -11.50079 0.711476 0.4505852 -0.5384406 
-1.565716 -8.711316 -11.23011 0.06351209 -0.4436383 -0.5719121 
-14.52006 2.602409 -14.77102 0.6966163 0.1244178 -0.7061901 
-29.77468 -16.51718 4.561478 -0.994796 -0.08199558 0.01872936 
-28.12876 -3.943255 -19.47527 -0.2680585 -0.1896432 -0.9388161 
-25.26968 15.28323 -0.2950177 0.757933 0.614002 -0.0007652687 
-17.22116 13.85938 -5.633355 0.7043163 0.6558342 -0.2656554 
-29.73524 -11.61109 -13.95242 -0.9816132 -0.1190464 -0.1440219 
5.420877 9.492933 4.381439 0.381898 0.761583 0.2759745 
-24.49858 14.0326 5.261898 0.7250622 0.6442217 0.2415454 
-31.09585 4.778966 -8.920342 -0.7020407 0.333638 -0.6244397 
0.6300046 0.5002339 -11.26534 0.7208946 0.03129895 -0.6903285 
-29.82552 -13.87024 -7.654298 -0.9853764 -0.1490145 -0.08208472 
-32.51145 -0.7731977 5.82281 -0.9895192 -0.01661719 0.1342618 
-7.097957e-16 -13.3538 2.509936 0.7220185 -0.6790847 0.1276498 
-10.419 0.3410403 -13.08016 0.5319915 0.01785484 -0.6847997 
-27.3878 3.564019 19.65959 0.05937399 0.1774057 0.9784694 
-8.028158 -5.109418 12.02768 0.09998822 -0.2674988 0.6296979 
-0.1575038 9.969139 10.10672 0.6251849 0.507695 0.5147014 
-30.94228 11.77956 2.619383 -0.9447365 0.0915385 0.2190617 
-28.13111 -18.77818 6.542418 -0.2690986 -0.9049524 0.3149569 
-30.94228 3.665199 -10.26748 -0.7971503 0.1860077 -0.5118402 
-14.47954 9.923904 11.20675 0.6965008 0.4739486 0.5364532 
-28.68073 19.54057 1.543015 -0.5122254 0.8513212 0.06793229 
1.958981 -10.07617 -2.819585 0.724293 -0.6613159 -0.1857332 
-8.365547 3.528033 -12.57549 0.1609514 0.1847068 -0.658378 
-12.85609 -5.351577 13.99078 0.6918728 -0.2570264 0.6735666 
-31.82818 -2.920793 9.178812 -0.6733583 -0.2229802 0.6583579 
-12.69875 -7.956436 12.6692 0.6914243 -0.3832553 0.6100264 
18.28447 -7.738717 3.175 0.5220966 0.2517706 -0.6251191 
-14.00111 -14.69533 -2.886278 0.695137 -0.7039883 -0.1384102 
-27.94484 0.3017502 -19.93089 -0.1867589 0.01488602 -0.9799352 
-27.92473 18.89921 -6.303566 -0.1778717 0.9312159 -0.3105598 
-3.449904 -4.924142 12.22685 -0.7237275 -0.2568836 0.6385399 
14.58011 2.430037 5.479676 0.6882222 -0.2186207 -0.4922908 
-8.03487 10.63957 7.574725 0.101201 0.5570249 0.3965676 
-25.14287 -12.29743 -8.487377 0.7268989 -0.5630254 -0.3886273 
-15.73594 -10.34113 -10.78952 0.7000824 -0.4910784 -0.5142659 
-16.12031 -7.180109 13.13812 0.7011782 -0.3408052 0.6242485 
-2.279612 -13.44812 -4.659181 -0.2212291 -0.6848682 -0.2372765 
-23.22458 14.16586 -4.862312 0.7214304 0.6539285 -0.223803 
6.654017 6.582309 -8.157471 -0.4812953 0.4261486 -0.5914096 
-31.59579 10.38888 -2.395112 -0.6418084 0.5434864 -0.5409657 
-3.449904 13.41346 -4.433913 -0.6911786 0.6845241 -0.2263216 
-25.26968 -5.633541 16.17243 0.9393629 -0.06317368 0.1753695 
14.28738 -9.40591 1.089079 0.713325 -0.6933885 0.0808456 
-30.94228 11.48848 -5.619806 -0.9763753 0.1772499 -0.0867818 
-32.34379 1.385124 -6.767902 -0.955514 0.04795998 -0.1982358 
6.570117 9.421064 -4.535532 0.3187193 0.7833586 -0.2843274 
-25.26968 15.1292 8.303807 0.9534127 0.133207 0.07578897 
-1.508226 14.12272 1.454844 0.08644231 0.7192229 0.07409033 
-1.614829 -7.037227 -12.38179 0.0439232 -0.3583826 -0.6305633 
18.90014 9.033756 -2.357655 0.7990378 0.4325368 0.09186663 
6.025974 -10.3947 -1.384191 0.7121432 -0.6946571 -0.0917735 
6.319348 -9.426061 4.523637 0.3213662 -0.7822444 0.2833753 
-30.94228 -10.96918 4.871955 -0.8891435 -0.3069141 0.1750481 
7.952673 0.02011128 -10.49862 0.7074708 0.001377065 -0.7062294 
-29.76295 -5.225168 -17.04178 -0.9938093 -0.02249626 -0.0882137 
-15.71453 -14.91587 -0.9466938 0.7000214 -0.709838 -0.04371417 
-12.9452 7.398905 -13.03609 0.6921269 0.3561909 -0.6270456 
-25.54044 18.79837 0.1008186 0.877801 0.4739653 0.002690222 
-29.75762 -7.025274 -16.446 -0.9914781 -0.04060452 -0.1041522 
-24.51951 14.29515 -4.379789 0.7251219 0.656277 -0.2007975 
-25.37466 1.584095 18.26409 0.9520516 0.02113983 0.2934287 
-32.02192 0.6243483 -8.737741 -0.7704912 0.04979212 -0.5243402 
-29.4486 -5.333088 18.07195 -0.85311 -0.1472285 0.4957479 
-32.13413 6.878558 -3.986922 -0.9041858 0.2647443 -0.1350907 
-22.51874 8.821478 12.06349 0.7194182 0.4076132 0.5588493 
1.802756 7.530771 -7.263075 0.5576668 0.4927895 -0.4753881 
17.82368 -0.3345763 9.471633 0.6961862 -0.02516566 0.7153702 
-25.26968 -16.32729 6.347514 0.9791163 -0.08326589 0.04008661 
2.220357 10.35998 -1.642086 0.7230266 0.6814814 -0.1078099 
-18.86692 8.936922 11.98266 0.7090079 0.4188783 0.5636504 
-23.43223 -4.237846 14.33318 0.7220223 -0.1957254 0.6608399 
-29.65106 2.017083 -18.29577 -0.9436444 0.03771919 -0.3227803 
-25.26968 3.760848 15.54272 0.8309261 0.0792849 0.4346378 
-29.85973 0.5846204 -15.73853 -0.9736207 0.006572032 -0.2144445 
1.080008 -8.228708 -6.920646 0.7194127 -0.5615293 -0.3821712 
12.14246 -9.027848 5.785804 0.3882223 -0.720498 -0.04393103 
-32.2159 5.1332 -5.950003 -0.9436361 0.1349312 -0.1872196 
-23.89887 14.86797 -1.494285 0.7233526 0.6842959 -0.06838062 
-28.71865 19.58876 -0.6887676 -0.5290258 0.8431927 -0.02716554 
-31.82418 0.7335796 -9.68434 -0.6687396 0.05535967 -0.7006222 
-22.63687 1.042324 14.90751 0.7197549 0.04769825 0.6897111 
7.221262 2.072218 -10.27881 0.7096323 0.1391777 -0.6892619 
18.90014 -3.608937 -7.629405 0.716454 0.1230753 0.2792383 
-6.130856 13.0205 1.022983 -0.2428369 0.6816761 0.05355729 
-30.94228 -1.421917 11.83801 -0.8930032 -0.03713413 0.3549242 
-17.98738 -11.35848 -9.772172 0.7065006 -0.5353748 -0.4609069 
-6.856575 11.51564 6.207499 -0.111706 0.6028903 0.3249878 
-29.53251 7.695392 -17.01665 -0.8905864 0.1787833 -0.4080655 
-18.15992 11.99031 -8.925998 0.7069924 0.5642547 -0.4215237 
-25.26968 14.12515 -10.06797 0.9657495 0.105141 -0.06566493 
-29.77468 11.35288 -13.16879 -0.9962848 0.04707598 -0.05207964 
11.04109 -3.511119 -9.874638 0.6993151 -0.2392987 -0.6718258 
11.04966 -4.971126 -9.222362 0.3846503 -0.2545966 -0.7562029 
-11.49968 -13.02322 5.177073 0.7078397 -0.654139 0.2609663 
