ply
format ascii 1.0
comment VCGLIB generated
element vertex 784
property float x
property float y
property float z
property float nx
property float ny
property float nz
element face 0
property list uchar int vertex_indices
property uchar red
property uchar green
property uchar blue
property uchar alpha
end_header
0.6300046 11.16392 -5.024284 0.7064058 0.6423993 -0.2919898 
14.58011 -1.080767 -2.121681 0.6887863 0.09665314 0.1905501 
-7.749539 3.534405 -7.866738 -0.9856633 0.04969491 -0.1106089 
-1.852259 -9.284114 -10.7909 0.3551723 -0.4891615 -0.5690321 
1.732953 9.239869 -4.929653 0.6357106 0.640987 -0.3179715 
-7.74954 -2.945315 2.657589 -0.9856633 -0.04141211 0.03736659 
0.6300046 10.32643 -6.423537 0.7095265 0.632162 -0.1453911 
13.04148 -9.309162 -4.787785 0.6768889 -0.6584005 -0.1833765 
9.646627 -7.967015 -7.476198 -0.1683382 -0.510971 -0.5004539 
-7.74954 -7.998874 5.902183 -0.9856634 -0.1124668 0.08298668 
15.99877 8.507622 -4.206532 -0.3036448 0.6228552 -0.3072486 
5.084353 -5.53298 -8.909572 0.1646921 -0.3404115 -0.8072463 
11.57206 -9.742894 3.90617 0.6959685 -0.6657665 0.2677898 
-7.74954 2.875252 -3.21518 -0.9856634 0.04042701 -0.04520646 
15.04589 6.247218 -7.136687 0.7160237 0.4591747 -0.5236602 
3.040309 2.811001 -10.08224 0.7214285 0.1858685 -0.6645227 
18.90014 -1.673558 -7.998537 0.7232726 0.1045826 0.5623164 
6.418165 -5.187301 9.100068 -0.01765542 -0.3115489 0.8923495 
-7.74954 10.26108 -2.489146 -0.9856633 0.1442742 -0.03499822 
17.11861 2.784894 -7.577255 0.7110723 -0.242373 0.659248 
0.4986415 -1.949616 13.32943 0.696191 -0.1033789 0.708457 
15.86669 -7.685137 5.564285 -0.2494232 -0.5617471 0.4078602 
0.7021223 -8.864857 8.119122 0.7207631 -0.6170619 0.3099449 
13.5001 3.716183 8.957337 0.7194238 0.2654164 0.6399651 
10.52095 -10.34671 -1.635958 0.6992552 -0.7041092 -0.1112427 
-0.6597811 0.2593733 14.22671 0.5694495 0.01478124 0.7334626 
-0.8392356 -13.28484 -5.099218 0.5372033 -0.6873993 -0.2636347 
1.045813e-15 -13.03182 -5.57247 0.6895473 -0.6636515 -0.2837834 
8.21785 10.40846 1.279936 0.7058731 0.7018209 0.08555266 
16.92873 -5.128885 -6.230474 0.7089131 0.4476725 0.5438572 
3.969508 -9.119159 5.168114 0.3216421 -0.7587131 0.3214926 
-7.74954 7.189637 7.061595 -0.9856634 0.1010887 0.09928842 
15.56856 5.27593 7.862547 0.71224 0.3906698 0.579765 
1.957321e-15 11.06497 -8.449882 0.7029722 0.563182 -0.4300539 
0.6300046 1.823851 11.28499 0.7189726 0.1107584 0.6857485 
9.761574 -10.42218 -1.16864 0.7014571 -0.7071358 -0.07865612 
4.714325 1.703451 -10.35894 0.7164176 0.1126159 -0.6880379 
8.490012 -3.848642 -9.75988 0.7063689 -0.2604234 -0.6571177 
-7.749539 -3.8079 10.90742 -0.9856633 -0.05354035 0.1533619 
15.20534 7.780993 -2.041618 0.6936874 -0.6939317 0.1815339 
18.90014 7.796312 -4.075983 0.814744 -0.2452798 -0.0943688 
0.6131818 7.777105 10.97216 0.6890541 0.4173902 0.5890137 
-4.705256 -13.3837 4.887207 -0.1574846 -0.7422696 0.2709758 
14.58011 4.014481 4.962181 0.6880895 -0.3609126 -0.445875 
-7.74954 -0.164938 9.928093 -0.9856634 -0.002319071 0.1395923 
18.90014 -0.6865532 9.164886 0.6958365 -0.01003389 0.4494786 
-3.390866 -9.011614 -11.01911 0.07869893 -0.4888504 -0.5968231 
-7.749539 -2.816737 0.3964057 -0.9856633 -0.03960426 0.005573601 
18.83605 0.005266185 9.499546 0.6888796 0.0009255547 0.7248167 
0.6300047 -10.4861 -7.118934 0.7047831 -0.6498766 -0.2151354 
-7.209401 0.1169366 13.61127 -0.6859369 0.0067435 0.6388609 
-7.37063 2.960503 -12.75591 -0.7754042 0.1258084 -0.4808656 
3.976091 5.796504 8.72105 0.3202659 0.3636156 0.7327729 
0.1953557 -13.00596 3.422603 0.7150882 -0.672708 0.1781832 
-7.74954 -9.622061 7.089051 -0.9856634 -0.1352894 0.09967442 
-7.182266 13.5004 2.315267 -0.6708794 0.6531042 0.114243 
14.58011 -2.488045 6.860652 0.6887916 0.2229948 -0.6160281 
15.01992 -4.980739 -6.334948 0.6929717 0.4444692 0.5655663 
-6.471253 7.101559 12.35113 -0.4748179 0.4060599 0.7059073 
18.90014 -8.349217 4.511298 0.8050979 -0.5190089 0.08286116 
3.501829 -10.23572 2.241398 0.7195095 -0.6766161 0.1485767 
18.90014 3.128497 7.950238 0.7140546 -0.05510511 -0.2005676 
-2.293736 12.54277 6.690585 0.2758431 0.6674024 0.3535506 
15.89454 8.232177 4.728745 0.709866 0.6098819 0.3503527 
15.91143 6.204784 5.163409 0.7001032 -0.5482472 -0.4563772 
12.89822 2.223803 -10.23812 0.6941199 0.1522973 -0.7018535 
2.012235 6.532902 -8.198333 0.5958059 0.4227205 -0.5884104 
2.213425 9.591258 -4.171713 0.5681514 0.6904244 -0.2671609 
-7.74954 3.416983 -4.947346 -0.9856633 0.04804393 -0.0695613 
18.90014 -7.535772 6.025324 0.8294895 -0.1683073 0.3947151 
-2.588139 10.48113 -9.59388 0.2229416 0.5580606 -0.5143547 
-0.5471066 -13.43029 4.723423 0.5896962 -0.6913123 0.2421133 
2.021278 5.970968 -8.591837 0.5948248 0.3851605 -0.6147698 
-1.000783 -6.394219 12.68097 0.5081745 -0.3303454 0.6587275 
13.5001 -8.8827 -4.943905 0.7518971 -0.6144807 -0.1971036 
-7.437372 -10.49764 -7.477181 -0.8124397 -0.3459102 -0.2715335 
6.330122 3.618263 9.846284 0.7124743 0.2426065 0.6572373 
10.90672 9.027948 5.343302 0.3936493 0.7476447 0.1920128 
11.20318 -4.524279 9.451075 0.454545 -0.2962505 0.7389301 
-7.74954 3.681096 -4.167421 -0.9856634 0.05175745 -0.0585953 
-7.485189 -7.589274 -10.24458 -0.8389739 -0.2476203 -0.3119752 
13.5001 7.52452 -7.337392 0.7065243 0.4930437 -0.505832 
-1.929193 10.62829 9.446723 0.341348 0.5596223 0.5000581 
13.5001 8.967374 5.81777 0.6911607 0.7145052 -0.0153481 
17.2818 -0.1435381 -9.488943 0.7005652 -0.008427887 -0.712333 
18.90014 4.192044 -7.019831 0.724205 -0.2806568 0.5045218 
4.386483 6.243264 8.405501 0.1847486 0.3956804 0.6885632 
18.00439 7.040452 -3.93607 0.7191211 -0.6057221 0.3381442 
10.15397 1.929961 10.30366 0.70157 0.1307657 0.6989678 
-5.343304 -0.4834601 14.2071 -0.2721359 -0.02462206 0.7968497 
14.58011 -4.244817 4.678001 0.6892244 0.3806562 -0.4197176 
14.58011 3.934788 1.667573 0.6883907 -0.3538757 -0.1497241 
2.550673 5.429196 8.973099 0.5207246 0.3463118 0.6694764 
6.638149 -2.030775 10.28837 0.71122 -0.1360484 0.688344 
15.10672 7.743149 2.182857 0.6927913 -0.6911581 -0.1953418 
-7.74954 -1.150233 -9.965487 -0.9856634 -0.01617267 -0.1401181 
14.83244 -5.002316 8.054061 0.7172797 -0.3674326 0.589895 
13.5001 -4.388222 -8.897255 0.7108222 -0.3112112 -0.6288067 
-7.74954 -9.386074 -5.482258 -0.9856634 -0.1319713 -0.07708236 
0.6300046 -11.51277 0.2840711 0.7174455 -0.6948564 0.01777394 
17.43507 0.3294625 8.046176 0.7136592 -0.03052967 -0.6974208 
16.5812 0.1812081 9.484369 0.7050174 0.01411017 0.7074792 
-1.437678 8.101576 11.65633 0.4296687 0.4252806 0.6087507 
5.804111 -8.38032 -6.275691 -0.1544101 -0.682667 -0.3978441 
2.432693 -7.945776 -6.849037 0.4103649 -0.5198575 -0.4485664 
14.58011 -0.2089815 5.065983 0.6887212 0.0182613 -0.4547999 
14.61669 0.8704143 -9.423849 0.7189522 0.06458202 -0.689074 
17.43224 -2.456095 -9.156507 0.7006073 -0.1847894 -0.687325 
14.58011 4.22839 1.071941 0.6883507 -0.38023 -0.0962669 
11.07528 0.8287556 -10.44328 0.6989318 0.05674677 -0.7110579 
1.476363 8.161802 6.582312 0.6711027 0.55603 0.4286298 
-7.74954 5.911322 6.496886 -0.9856634 0.08311517 0.09134845 
9.888541 9.57233 4.250893 0.5103059 0.7241016 0.2792169 
-1.824765 7.618886 11.99431 0.3601126 0.4038671 0.6302022 
7.290054 7.621542 -7.226623 -0.7235209 0.5023655 -0.4709007 
15.40362 -5.269755 6.107512 0.6961846 0.4679017 -0.5431224 
-3.506759 -13.43247 -4.715273 0.05787408 -0.7295901 -0.2555294 
-7.143827 3.785707 13.23699 -0.6495497 0.2009009 0.6645958 
-7.74954 -4.057217 4.983899 -0.9856634 -0.05704583 0.07007526 
16.51784 6.680297 6.710191 0.7055199 0.4989522 0.4992637 
9.879474 -10.45093 0.8820813 0.7011169 -0.7093865 0.05975225 
8.907337 9.920023 3.375176 0.7040511 0.6703197 0.2285265 
-7.552188 11.91463 -4.002351 -0.8761516 0.3248724 -0.09897021 
-2.180853 -13.10956 -5.475115 0.2961271 -0.6957666 -0.2890732 
13.80974 8.007731 -5.063493 0.6350183 0.5793597 -0.4026368 
10.17247 9.353916 -4.696999 0.2855215 0.7977875 -0.2976279 
0.6300046 0.527983 13.41248 0.6886287 0.02863788 0.7225909 
4.100441 1.347238 -10.38876 0.7181372 0.08911916 -0.6882639 
11.99202 -8.196252 7.246961 0.3591787 -0.5158828 0.495542 
1.080008 -7.54942 7.984251 0.7143572 -0.4905102 0.4947844 
-6.676286 13.63046 -3.976395 -0.5116604 0.7816639 -0.2285389 
10.84045 -5.942928 -9.027987 0.09894948 -0.04273612 -0.7205748 
-7.286106 5.070566 -12.35492 -0.7285008 0.2241278 -0.5248814 
15.4971 9.375728 1.41622 0.71262 0.6919543 0.1039904 
15.93569 -8.900352 -3.29453 0.4107503 -0.8976521 -0.05433092 
-5.402036 2.881341 -13.92388 -0.2826895 0.1596115 -0.7821051 
-7.74954 -9.740339 -3.15198 -0.9856633 -0.1369524 -0.04431786 
-7.74954 -1.231717 -2.93961 -0.9856633 -0.01731836 -0.04133189 
12.79904 -7.018487 -8.424726 0.5406889 -0.4906464 -0.5207785 
11.021 7.911744 7.531468 0.1407807 0.5097866 0.5016382 
14.58011 5.83752 3.066415 0.6880717 -0.5247024 -0.275525 
-1.43443 -13.45132 4.644932 0.4302524 -0.7039633 0.2417501 
-7.74954 -0.6093329 5.774872 -0.9856634 -0.00856742 0.08119664 
0.513689 -1.937067 -13.33053 0.6952534 -0.1028675 -0.7094414 
-5.28376 14.04199 -2.370675 -0.2614363 0.7865229 -0.1333221 
2.371596e-15 -9.020586 -10.71691 0.7005551 -0.4591645 -0.5455123 
-0.1385571 11.11415 8.875882 0.6631086 0.5676765 0.4529885 
14.01035 0.8540887 9.425466 0.7234355 0.06235648 0.6847712 
0.6300046 -11.47332 -3.381402 0.7106544 -0.6724117 -0.2001344 
7.290054 -8.874537 -6.21693 -0.6943954 -0.683744 -0.1843321 
2.733984 -2.252045 -10.23101 0.7220254 -0.1486574 -0.6738511 
11.79877 -6.33498 -8.943363 0.311864 -0.2589835 -0.6738974 
-7.092427 5.480959 -12.80264 -0.6210271 0.294056 -0.6778033 
-0.6052244 1.746157 14.09663 0.5792528 0.09037142 0.7261009 
-5.26863 13.87535 -3.062437 -0.2587177 0.7767698 -0.1724796 
4.294225 4.199783 -9.57991 0.4705861 0.2676028 -0.730533 
-6.336648 8.443187 -11.41713 -0.4506307 0.4810498 -0.6514289 
-7.74954 -5.865933 2.964558 -0.9856634 -0.08247698 0.04168265 
-2.020664 -7.823043 -11.85136 0.3249114 -0.4162359 -0.6248097 
-1.393456 13.77125 3.450964 0.437615 0.7201779 0.1790729 
-1.967773 -9.380698 10.69431 0.3344155 -0.4965908 0.5638352 
7.636044 8.490156 6.953056 -0.6205502 0.5221804 0.4892444 
10.14902 10.12124 -2.743053 0.7005433 0.6875985 -0.1859739 
14.58011 5.583183 -4.713708 0.688033 -0.5018052 0.4235981 
-7.74954 4.131267 9.772198 -0.9856634 0.05808702 0.1374004 
-0.5807179 -5.951961 12.8872 0.5836565 -0.3058509 0.6638156 
-7.521394 12.29614 -2.934355 -0.8590639 0.3592109 -0.07411183 
-3.846282 -11.76747 7.942848 -0.003135085 -0.6411365 0.4364148 
9.392847 -10.40444 1.287036 0.7025067 -0.7048743 0.08663081 
-1.283094 11.29775 8.613671 0.4574461 0.5906243 0.4474847 
14.59892 0.5425546 9.452939 0.719206 0.04059765 0.690932 
5.762738 0.8639813 10.43468 0.7136128 0.05814236 0.695774 
6.652759 7.351976 -7.449314 -0.5764384 0.4818735 -0.4882004 
-7.74954 -4.030304 -3.785476 -0.9856634 -0.05666743 -0.05322504 
14.58011 4.550002 5.455276 0.6880615 -0.4089969 -0.4902164 
-7.74954 -2.035887 10.70185 -0.9856634 -0.02862526 0.1504715 
14.58011 -1.82145 -4.631513 0.6888047 0.163231 0.4158596 
14.04895 6.253815 -7.13009 0.7232706 0.4548925 -0.5177094 
-7.74954 -0.8891293 4.23718 -0.9856634 -0.01250145 0.05957617 
12.73523 5.391997 9.00412 0.673775 0.1153992 0.6463106 
-7.749539 2.117858 -11.44246 -0.9856633 0.02977779 -0.1608848 
-7.74954 4.827712 7.774744 -0.9856634 0.06787927 0.1093156 
11.61907 -9.033941 5.866724 0.2719379 -0.7238591 0.0007030488 
14.75194 -5.451646 -5.925879 0.6908162 0.4878973 0.5307302 
14.58011 3.804231 5.619308 0.6880859 -0.3420119 -0.5049348 
10.68224 -10.03911 2.994852 0.6988873 -0.6834954 0.2038837 
12.62053 10.33822 -1.657039 0.6932393 0.7094746 -0.1137476 
-2.634283 5.394718 -13.14705 0.2146499 0.2871061 -0.7035209 
5.52021 -10.46781 -0.5300464 0.7135675 -0.698023 -0.03571493 
7.263457 4.755865 -9.31794 0.2368758 0.2964054 -0.8088704 
17.55278 2.691769 7.606786 0.7150176 -0.2326514 -0.6581863 
-1.033867 -10.85559 -9.219424 0.5022298 -0.5633216 -0.4790556 
4.310312 -10.49167 0.1159603 0.7170177 -0.6961319 0.007990276 
0.8398152 -3.020336 -10.54995 0.708756 -0.1928325 -0.6763367 
-4.931842 -2.902514 13.9182 -0.1982001 -0.1595697 0.7754641 
-0.1496468 -7.131805 12.33537 0.6611159 -0.3642407 0.6300036 
10.67388 -8.338968 -7.104244 0.06270733 -0.5189409 -0.4924839 
12.66816 -7.411877 8.031336 0.5112534 -0.4990757 0.5123491 
7.674629 -7.749215 -7.693997 -0.6118718 -0.506304 -0.5051208 
-7.48188 4.336199 -12.04285 -0.8371373 0.1368851 -0.3779061 
15.287 -3.660571 -8.747372 0.7143246 -0.2699714 -0.6438339 
15.18342 2.14899 7.752223 0.6934882 -0.1912517 -0.6915336 
3.991815 4.802442 -9.289579 0.3182003 0.2988522 -0.7705937 
8.963093 -10.04222 -2.996456 0.7039988 -0.6788328 -0.2023708 
0.3010071 -12.43495 -5.155331 0.7085052 -0.6491456 -0.2701025 
14.58011 5.2506 -0.7773317 0.6882163 -0.4719909 0.06969976 
1.110706 -9.198344 -5.02438 0.7231075 -0.6034271 -0.3272566 
-5.981188 -13.69411 -3.738838 -0.3867577 -0.7765749 -0.2108299 
-4.598036 12.62573 6.512676 -0.1382182 0.6995618 0.359096 
6.649833 -1.193687 10.40778 0.7111448 -0.08000559 0.6964855 
13.42309 -1.621683 10.36248 0.6925496 -0.1110793 0.7119599 
-2.296729 -12.66944 -6.41894 0.2753052 -0.6747428 -0.3379059 
5.859765 -10.47374 0.4746416 0.7125956 -0.6993851 0.03216233 
4.423066 5.297644 -9.056828 0.2576798 0.3282482 -0.779825 
-1.792544e-15 11.29835 8.146602 0.7020668 0.5750464 0.4146859 
18.90014 8.809102 -4.378448 0.7880577 0.3214111 -0.2324013 
-7.74954 -2.938067 -8.440378 -0.9856634 -0.04131021 -0.1186745 
13.5001 -9.517536 0.2627819 0.7255102 -0.6865982 0.01886508 
0.6300046 -4.024386 10.33468 0.723663 -0.2498382 0.6412358 
14.58011 6.938718 0.08868039 0.6880289 -0.6236218 -0.007991374 
13.48675 5.096663 -9.157265 0.7637203 0.1348695 -0.6198527 
3.049777 5.224674 -9.096697 0.4506446 0.3304128 -0.7054887 
-3.774645e-16 14.05904 2.054889 0.6885599 0.7159938 0.1046531 
9.351646 -8.198213 7.245 -0.2346839 -0.5159248 0.4955 
-1.475889 14.08331 1.898419 0.4228026 0.7374924 0.09668425 
15.17511 -1.146477 -9.404417 0.7152913 -0.08416081 -0.69144 
-0.721139 -14.11823 1.499275 0.5584241 -0.7287669 0.07807416 
10.54567 -9.225393 4.953264 0.3114876 -0.7841622 0.2614894 
0.6300046 8.291323 8.900394 0.724113 0.3728367 0.5776771 
-7.74954 0.1645229 -3.884639 -0.9856634 0.002313247 -0.05461929 
-3.902709 -6.565864 -12.60093 -0.01327443 -0.357394 -0.689871 
2.967743e-15 9.24618 -9.805176 0.726066 0.4701197 -0.4985352 
-7.74954 -4.66617 -6.928535 -0.9856634 -0.06560791 -0.09741752 
14.58011 2.969897 3.982505 0.6883851 -0.2671981 -0.3576487 
0.6300046 8.214404 -9.781313 0.7046419 0.3072622 -0.6081594 
16.43698 7.628276 2.611566 0.7048788 -0.6694704 -0.2296512 
-7.74954 -4.48935 -0.1372256 -0.9856634 -0.06312176 -0.001929447 
-7.74954 2.110429 6.245192 -0.9856634 0.02967336 0.08780955 
-7.568799 3.292987 12.05327 -0.8853689 0.09756444 0.3103195 
13.08748 5.91081 9.030497 0.5981798 0.02502033 0.721959 
-6.025501 10.53055 -9.54446 -0.3947205 0.5970321 -0.5418144 
-7.74954 6.110691 7.864435 -0.9856634 0.08591837 0.1105767 
-5.135999 9.809172 -10.26584 -0.2348852 0.5460843 -0.5755715 
14.58011 -4.802801 3.189915 0.6892975 0.4306933 -0.2860718 
-2.264835 -13.31715 5.029923 0.2810364 -0.7074218 0.2667942 
1.445975 -10.44043 -0.6942802 0.7252163 -0.6845614 -0.04555631 
9.643713 -4.832247 9.291114 0.2506282 -0.3048733 0.8054116 
14.58011 1.799945 -3.744235 0.6884812 -0.1620229 0.3361136 
0.4179969 -6.212495 11.94199 0.7012159 -0.328905 0.6297562 
0.2195518 11.73865 -6.648547 0.7135806 0.6088237 -0.3445825 
7.098125 1.651632 -10.36646 0.7098767 0.1101554 -0.6950452 
-5.511404 -14.13876 1.264587 -0.302342 -0.7949296 0.07292618 
7.730176 -3.843188 -9.763391 0.7084973 -0.2593843 -0.6553185 
14.1395 3.013097 -8.990342 0.7226124 0.2192853 -0.6539172 
-7.74954 -2.930682 3.339053 -0.9856634 -0.04120637 0.04694819 
14.58011 -6.31685 -2.519272 0.6902368 0.5648414 0.2274411 
11.01556 10.47439 -0.4883849 0.6978641 0.7141823 -0.03365228 
-7.062322 2.550725 13.82025 -0.6043217 0.1395663 0.7542877 
11.41223 -9.20074 -5.001964 0.4458717 -0.7357978 -0.2194498 
0.6300046 -9.210126 8.940496 0.7056667 -0.4895948 0.507923 
14.58011 2.837215 -1.576975 0.6884277 -0.255229 0.1415457 
4.578846 7.048565 -7.749541 -0.09148292 0.4618489 -0.5074142 
17.34745 -2.425863 9.151302 0.6997951 -0.1830308 0.6875314 
-1.805697 5.451438 -13.1206 0.363539 0.2861072 -0.6914929 
0.6300046 -6.312463 -11.08341 0.6992833 -0.3279154 -0.6247493 
12.72596 4.538095 -9.446907 0.6034881 0.2599204 -0.6866538 
-7.74954 -5.44503 5.880418 -0.9856634 -0.07655894 0.08268061 
-7.74954 -2.902136 -7.669552 -0.9856634 -0.040805 -0.1078364 
-7.74954 -9.65554 0.1683011 -0.9856633 -0.1357601 0.002366398 
-4.92123 -14.16295 -0.9881458 -0.1962932 -0.7882284 -0.05698436 
-2.540114 13.85104 -3.153172 0.2315712 0.7385069 -0.1712126 
-6.981647 9.949648 10.12536 -0.566531 0.5735803 0.5837449 
0.6300046 -1.779804 12.53974 0.7001271 -0.1006522 0.7050521 
-7.74954 5.326901 -6.212329 -0.9856634 0.07489802 -0.08734742 
-0.8960963 2.330145 -14.04554 0.5269859 0.1198341 -0.7275134 
14.58011 2.194418 -4.291441 0.6883163 -0.1974382 0.3854153 
-7.74954 -5.654288 3.564558 -0.9856634 -0.07950117 0.05011885 
-7.74954 3.081868 10.54795 -0.9856634 0.04333212 0.1483078 
-2.323469 -14.23464 -0.1687443 0.2705003 -0.7567267 -0.009731139 
-7.74954 -10.13802 -0.5085175 -0.9856633 -0.1425439 -0.007149894 
-7.74954 1.793002 5.656291 -0.9856633 0.02521022 0.0795294 
-7.749539 5.48191 5.257145 -0.9856634 0.07707751 0.07391728 
17.50529 -7.558277 3.175 0.4319386 0.4652869 -0.6353729 
0.6300046 -10.49705 6.058297 0.7091881 -0.6242374 0.2586428 
13.26838 -6.703758 -8.726345 0.6420107 -0.4512486 -0.5600438 
9.833809 -2.624985 -10.15432 0.7026199 -0.1782409 -0.6877112 
3.374446 -8.967453 5.441504 0.4051693 -0.7154905 0.3423685 
-7.74954 8.408809 -3.799344 -0.9856633 0.1182306 -0.05342006 
18.90014 -5.620747 7.372011 0.6944864 -0.3080139 0.4084719 
18.1565 -2.530696 -7.658576 0.7194636 0.2169155 0.6586286 
12.76822 -5.995803 9.023857 0.5272483 -0.07189999 0.7182961 
0.4626597 -9.304802 -9.71443 0.698433 -0.4921827 -0.5154908 
10.03985 -4.461069 -9.477018 0.4619123 -0.2910876 -0.7359787 
-7.239541 -11.15434 -7.570796 -0.7026618 -0.4985158 -0.3530313 
-7.460035 0.412283 12.83302 -0.825015 0.02377553 0.4189457 
-1.765224 -10.37489 9.700125 0.3708117 -0.5469306 0.509581 
8.885288 7.238146 8.205066 -0.3395754 0.4953531 0.5160717 
8.773628 -9.604451 4.177863 0.5324007 -0.7157761 0.2741768 
-7.74954 11.20204 1.001529 -0.9856634 0.1575043 0.01408186 
1.455199 5.197235 9.116276 0.6747125 0.3365743 0.6174622 
15.72514 -8.839863 -0.03286366 0.7044833 -0.08254336 0.002828178 
8.669053 10.2736 -2.12919 0.7045325 0.6938463 -0.1443067 
12.78332 -8.491959 6.951254 0.5371545 -0.5222191 0.4892058 
17.62061 -6.691352 -6.730145 0.6996005 -0.5029494 -0.506155 
17.16559 8.981586 3.028869 0.7010079 0.6738714 0.2270283 
-7.508132 -9.366182 -8.560797 -0.8517041 -0.2684142 -0.2656882 
-7.584929 -12.21049 -2.519858 -0.8943201 -0.3061181 -0.05913449 
13.5001 -6.919804 7.307067 0.7148038 -0.4710816 0.5149904 
-7.74954 6.13833 -0.5964074 -0.9856634 0.08630698 -0.008385666 
0.8309091 -10.89072 1.368598 0.7094654 -0.6973461 0.08694492 
4.560472 -7.374504 7.423574 -0.0871864 -0.4830315 0.4862244 
-7.426516 -4.25433 -12.2362 -0.8064153 -0.1514372 -0.4237686 
13.40927 -8.99951 5.583274 0.7089794 -0.6730376 -0.04403993 
8.527312 4.562866 9.419515 0.3713292 0.2916571 0.7651417 
6.304355 -3.228376 -9.981089 0.712616 -0.2157477 -0.666398 
-7.74954 5.055188 -2.190414 -0.9856633 0.07107765 -0.03079793 
-3.558777 -10.60924 9.465774 0.04852694 -0.5777134 0.5134608 
-4.364585 -4.228946 13.56279 -0.09626931 -0.2315087 0.7481627 
17.09968 -8.806429 5.084394 -0.437324 -0.8330321 -0.1030078 
-4.00033 7.169093 12.30926 -0.03081602 0.3928506 0.6742105 
-5.787727 10.19939 9.875623 -0.3519947 0.575436 0.5588152 
-1.229093 -0.4640631 14.2088 0.4671494 -0.02363419 0.7404978 
10.9203 -8.737583 -6.690598 0.1196134 -0.5650933 -0.4461796 
3.186369 -9.950732 -3.301454 0.7210046 -0.6561986 -0.2183235 
-3.42538 10.23157 9.843437 0.0724971 0.5524672 0.5361288 
-1.450472 -8.232335 -11.56477 0.4273697 -0.4320529 -0.6042222 
7.672239 -0.3580953 10.47549 0.7083069 -0.0245196 0.7038122 
-7.716251 11.81303 2.48581 -0.9671911 0.1932818 0.03974504 
-2.10077 12.89613 5.932819 0.3105174 0.6838645 0.3120078 
9.21318 4.435587 9.485817 0.4565667 0.288188 0.7373676 
-6.323872 -13.85144 3.151667 -0.4483349 -0.7900653 0.1785768 
-7.494592 -5.455997 -11.48724 -0.8441908 -0.1490246 -0.3601886 
-4.950746 2.284971 14.04949 -0.2015969 0.128164 0.7824059 
3.43858e-15 -5.505989 -12.46041 0.7182546 -0.2800308 -0.6337755 
1.978247 -2.348833 -10.20261 0.7241514 -0.154543 -0.66988 
3.606287 1.103355 10.40901 0.7195176 0.07300539 0.6882054 
14.58011 -1.251223 -7.690774 0.6885032 0.1120891 0.6907595 
-5.611712 -7.192838 -12.29263 -0.3203663 -0.4052722 -0.692395 
14.58011 -2.190681 7.593501 0.6886916 0.1964284 -0.6818868 
5.621864 4.463417 -9.455339 0.3579251 0.2810747 -0.7682492 
16.01853 6.231974 7.149754 0.7090145 0.4624819 0.5301188 
-7.74954 5.58563 -1.096773 -0.9856634 0.07853584 -0.01542097 
-2.803693 -8.449986 11.41237 0.1842085 -0.4502895 0.6140282 
1.568675 -10.03454 2.970566 0.7255057 -0.6573588 0.1954439 
18.36672 -8.479217 6.213567 0.253172 -0.4418096 0.3894638 
13.5001 5.664535 -8.890168 0.705999 -0.05099811 -0.687237 
15.78072 2.975725 9.002071 0.7107261 0.2205135 0.6660276 
18.10638 7.724747 2.251531 0.720048 -0.6633837 -0.1938488 
1.453316 4.264695 -9.551134 0.6748276 0.2771986 -0.6452224 
-7.74954 -1.069628 2.825136 -0.9856634 -0.01503932 0.03972237 
-1.119569 4.463872 13.49984 0.48683 0.2300066 0.7026554 
-7.749539 9.139954 -3.643688 -0.9856634 0.1285108 -0.05123149 
13.5001 7.092462 7.631993 0.7082654 0.5026999 0.49349 
-5.459496 13.82866 3.23671 -0.2930146 0.7776089 0.1794256 
18.90014 8.533305 -1.907698 0.7649871 -0.08095077 0.1033152 
15.72514 -8.529488 -2.821168 0.4694455 -0.3519817 0.07311267 
14.92286 2.701612 -7.604149 0.6911204 -0.2420212 0.6803775 
14.58011 -4.182111 -2.675418 0.6892685 0.3747637 0.2405617 
-7.749539 -7.395978 5.491426 -0.9856634 -0.1039899 0.07721131 
-7.74954 8.63995 2.468897 -0.9856634 0.1214806 0.03471352 
15.95317 4.544108 -6.638424 0.7004825 -0.4021294 0.5857696 
5.631229 3.217977 -9.981672 0.7144668 0.2145951 -0.6646276 
18.29916 -2.808742 9.051247 0.69311 -0.213406 0.6865094 
0.6300046 -10.72606 -4.12359 0.7177244 -0.6480028 -0.2495951 
5.030863 8.019058 -6.776368 -0.1919414 0.5281425 -0.4438931 
-7.749539 2.24455 -2.902453 -0.9856633 0.03155914 -0.04080942 
12.74417 -8.027452 7.41576 0.5283495 -0.5122659 0.4991589 
-7.749539 2.980044 -11.23759 -0.9856634 0.04190041 -0.1580043 
1.35445 4.992001 -9.212406 0.6888371 0.3240046 -0.6179812 
-4.256518 -0.5029784 -14.2054 -0.07685079 -0.02900575 -0.7815578 
7.088896 10.48451 -0.0588856 0.7090806 0.7036117 -0.004057518 
-7.103024 -10.01 9.630308 -0.6269075 -0.5311157 0.5003722 
10.6124 8.280338 7.162874 0.04887971 0.5176846 0.4937402 
6.472789 -0.4485925 -10.4693 0.7116545 -0.03071614 -0.7000198 
7.721675 3.040802 10.03599 0.708626 0.2043089 0.6739559 
10.30945 -6.634042 8.785218 -0.01902346 -0.4239393 0.5866681 
-6.516469 5.313297 13.18501 -0.4829427 0.3041372 0.7541165 
14.93319 -1.832503 -9.309165 0.7167875 -0.134506 -0.6828997 
-1.597392 -14.23549 -0.1590413 0.4009696 -0.7468155 -0.009171589 
-7.74954 4.137403 0.05971813 -0.9856633 0.0581733 0.0008396953 
13.30539 -10.2354 2.299172 0.691241 -0.7043605 0.1583446 
14.38795 -3.798463 -8.676973 0.7199576 -0.2774683 -0.6336581 
-7.74954 -0.4678094 -3.85083 -0.9856634 -0.006577562 -0.05414394 
-7.74954 -6.301704 -3.127334 -0.9856634 -0.08860406 -0.04397136 
-7.218068 -12.82439 4.467711 -0.6907463 -0.5966052 0.2056137 
12.38933 -9.87604 3.488595 0.6936635 -0.6771873 0.2396644 
-7.270856 -9.422297 -9.508192 -0.7200388 -0.3985887 -0.4268366 
1.474345e-15 -12.27885 -6.58962 0.7028269 -0.6249464 -0.3354135 
14.58011 -4.420442 6.028779 0.6892455 0.3964098 -0.5409872 
-7.74954 5.063227 2.251264 -0.9856634 0.07119069 0.03165357 
7.603964 2.193127 10.25305 0.708611 0.147685 0.6885042 
-7.74954 -3.69642 -10.9842 -0.9856634 -0.0519729 -0.1544415 
6.414777 -7.200104 7.600821 -0.5207897 -0.4719653 0.4980156 
-7.74954 -10.77318 -0.5811611 -0.9856633 -0.1514744 -0.008171286 
18.90014 -8.913442 5.166072 0.6276597 -0.7257156 -0.1878537 
11.77744 -2.915468 10.08284 0.6973909 -0.1988098 0.6880608 
7.914896 -0.8336562 -10.44206 0.7077008 -0.05693718 -0.7021575 
-7.74954 1.566107 1.509918 -0.9856633 0.02202 0.02123 
14.58011 3.864033 2.884118 0.6884223 -0.3475493 -0.2589222 
-5.715035 -7.690304 11.9443 -0.3389326 -0.4321514 0.6752977 
15.95453 0.1055863 9.490892 0.7095103 0.008313387 0.7034723 
15.72514 -9.179138 1.271434 0.693917 -0.5026564 0.08067121 
-5.446467 3.632349 -13.72264 -0.2906734 0.2021802 -0.7713274 
6.046843e-16 -13.49363 -2.223643 0.7174035 -0.6863452 -0.1131078 
3.641841 6.395537 -8.296249 0.2903511 0.4095574 -0.640303 
8.033525 -9.816986 3.699904 0.7065521 -0.6607971 0.2501732 
0.7325083 6.710782 -8.912841 0.6756486 -0.1210763 -0.7096286 
0.6300046 12.21722 3.204531 0.7004354 0.6872902 0.1823407 
15.36954 1.553651 7.911744 0.6951792 -0.1376412 -0.7041504 
5.726244 -9.944948 -3.318798 0.713527 -0.6630026 -0.2216202 
-4.000486 -14.20122 -0.5506682 -0.03084415 -0.777805 -0.03175591 
-3.180009 3.616846 -13.7268 0.1165881 0.1917768 -0.7420497 
18.90014 -7.706391 -4.098764 0.6760641 -0.03882363 0.122896 
13.5001 0.6437691 9.707187 0.7181703 0.04517094 0.6920713 
-1.176304 2.293451 14.04875 0.4766351 0.1196049 0.7313773 
-7.537573 -9.829043 -7.909594 -0.8680419 -0.272855 -0.2242008 
6.839679 5.228992 9.081351 -0.03055359 0.3141634 0.8967887 
3.324942 -10.33454 -1.825884 0.7198591 -0.6828871 -0.1207258 
-2.121547 7.026778 12.386 0.3067838 0.372417 0.6560085 
-4.405627 -8.063557 11.68295 -0.1036441 -0.4421302 0.646466 
16.88546 -1.801419 -7.847611 0.7085148 0.156224 0.6856223 
-7.74954 6.160391 -4.544857 -0.9856634 0.08661716 -0.0639022 
-1.97307 2.689537 13.97527 0.3334637 0.141675 0.738399 
14.6898 -3.443548 -7.270522 0.6899062 0.3084607 0.6518404 
-7.74954 -8.505404 1.540719 -0.9856634 -0.1195888 0.02166304 
0.1054389 6.648967 11.73846 0.7206908 0.341042 0.6026416 
12.23763 10.117 2.743536 0.6943377 0.6932315 0.1879612 
17.37085 -8.187569 3.175 0.3960369 0.02993485 -0.5450894 
-0.1185324 3.742903 13.69302 0.6667069 0.190904 0.6989705 
9.515703 -10.47826 -0.0953266 0.7021485 -0.7101447 -0.006568504 
-0.07190999 13.61413 4.037334 0.6750845 0.6943228 0.205788 
-5.613552 -11.18771 8.770831 -0.3206971 -0.6287668 0.4961866 
13.5001 9.694616 0.6264377 0.7178638 0.6925974 0.04466448 
-7.572991 12.35808 1.965069 -0.8876956 0.317943 0.05305312 
-6.927754 14.14461 1.197731 -0.5568469 0.8147114 0.06889801 
7.656043 9.025028 5.750285 -0.6085397 0.718942 -0.06352355 
7.498309 5.617816 -9.007833 -0.5460011 -0.03187625 -0.7491266 
0.6300046 10.31819 7.602165 0.7017632 0.6253362 0.2712718 
17.65521 9.591495 -3.343721 -0.05654836 0.6855609 0.1921173 
15.07769 -9.32115 1.772609 0.6703723 -0.7236201 0.1125914 
18.90014 -7.421346 4.085519 0.6930435 0.1875885 -0.2330911 
3.437054 -10.14753 -2.569784 0.7198773 -0.6703912 -0.1702043 
10.16612 4.390579 9.51256 0.5032235 0.2885863 0.7224249 
-7.74954 -0.3454139 -9.859249 -0.9856634 -0.004856641 -0.1386243 
-4.799395 -13.88982 -3.008425 -0.1744005 -0.7722296 -0.1646481 
-3.204717 -11.45032 8.395781 0.1121482 -0.6168281 0.4558453 
4.027241 -1.741976 10.35264 0.7183059 -0.114927 0.6857326 
-3.809086 -5.132959 -13.26911 0.003548831 -0.279287 -0.7248813 
15.37667 -5.481566 7.721606 0.7134194 -0.4046907 0.5687686 
-7.74954 -2.385326 8.806693 -0.9856634 -0.03353848 0.123825 
0.6300046 9.513376 -5.941083 0.7240138 0.6290621 -0.07689679 
-7.74954 11.50055 -2.540009 -0.9856634 0.1617014 -0.03571334 
-7.594566 -3.790809 -11.84011 -0.8996676 -0.09725544 -0.2872423 
-7.74954 -4.823494 -8.445085 -0.9856634 -0.06781993 -0.1187407 
-7.317933 12.50799 4.494647 -0.7461617 0.5128221 0.1833136 
2.588523 -0.9948992 -10.41627 0.7223246 -0.06555171 -0.6858755 
18.07857 3.367449 -8.871936 0.6939783 0.2551921 -0.6721025 
12.23622 -3.932099 -9.722445 0.695861 -0.2694594 -0.6646103 
-7.74954 6.00062 0.09965515 -0.9856634 0.08437075 0.001401208 
4.532651 -1.120151 10.40957 0.7169701 -0.07443702 0.6907856 
16.39901 2.625916 9.096268 0.7063301 0.1967163 0.676981 
10.10076 -10.47675 -0.5041022 0.7004772 -0.7117196 -0.03473531 
1.297868 -8.392699 -6.251637 0.6963366 -0.5611816 -0.4075041 
4.530196 0.3671378 10.47487 0.7170377 0.02513876 0.6949794 
0.6300046 13.15419 -0.6860144 0.6923116 0.7181157 -0.03864532 
-3.364259 14.11541 -1.531533 0.08347994 0.7643304 -0.08601315 
-7.74954 8.835514 -2.208067 -0.9856633 0.1242302 -0.03104618 
-0.7151365 1.040964 14.15833 0.5595027 0.05471857 0.7307279 
2.85547 -0.04305177 -10.49705 0.7216359 -0.002947852 -0.6918602 
-4.941239 8.5648 -11.33197 -0.1998887 0.4757587 -0.6318545 
-0.006198742 9.838617 -10.23639 0.6868923 0.5011237 -0.5213925 
-7.618374 2.671574 12.06629 -0.9128785 0.07476604 0.27187 
0.6300046 -12.01224 4.561452 0.6975638 -0.6683139 0.2550941 
-7.74954 -2.674938 -1.154363 -0.9856633 -0.03761052 -0.01623072 
15.41803 -7.581374 2.72711 0.4825701 0.7108613 -0.3962693 
-5.943285 12.54127 6.693807 -0.3799471 0.7106726 0.3787684 
-7.644744 -11.12687 -5.166287 -0.9275116 -0.2317097 -0.1160924 
16.58966 -0.8051838 8.007023 0.7058995 0.06914228 -0.7019702 
-7.705071 4.012927 -11.43846 -0.9609873 0.0690359 -0.1954821 
9.374525 0.6108474 -10.45819 0.7036202 0.0418261 -0.7073531 
13.4344 -6.145534 8.999979 0.6752555 -0.1544882 0.7051259 
-7.173333 9.259304 10.08364 -0.6659223 0.4413629 0.5038005 
15.35439 4.061725 8.550388 0.7137705 0.3000554 0.6295691 
15.72514 -8.329889 -2.175106 0.6395399 0.08907534 0.07772901 
14.58011 -5.755569 -5.063352 0.6900908 0.5145796 0.4557437 
-7.74954 8.240485 7.641228 -0.9856634 0.1158639 0.1074383 
15.78436 8.91259 3.280351 0.7106237 0.659551 0.2429034 
2.948619 6.581983 8.162214 0.3694848 0.4265247 0.5817856 
-1.473168 13.13862 -5.412783 0.4232914 0.6866357 -0.285771 
0.5360456 -6.846987 -11.62343 0.6938604 -0.3648496 -0.6199448 
14.58011 3.327845 -1.024086 0.6883927 -0.2993047 0.09190312 
-7.36863 10.61421 -7.669121 -0.7742943 0.3912189 -0.3108754 
12.63982 6.297723 -8.95878 0.498722 0.2384331 -0.6824021 
1.311374 10.49674 0.04569612 0.7255849 0.6878836 0.003045008 
14.58011 -3.302871 -5.984209 0.6890104 0.2961063 0.5374252 
3.012113 -10.37108 1.544135 0.7207612 -0.6844776 0.1015722 
-1.332008 8.063652 -11.68288 0.4486566 0.4198083 -0.6108196 
-2.417511 -10.23888 -9.83613 0.2536017 -0.5427709 -0.5263469 
0.6300046 -10.22323 8.389267 0.6936808 -0.5787113 0.3942996 
-0.3288133 5.250743 13.21418 0.6289214 0.2696694 0.6768889 
13.81833 7.823493 5.327754 0.7244431 0.5676427 0.3864543 
0.6708715 8.903001 8.038383 0.7234504 0.6297999 0.2767005 
1.124284 3.436806 9.908291 0.7269871 0.2259719 0.647499 
14.58011 4.451874 -2.333311 0.688152 -0.4002229 0.2095707 
7.254312 -1.25064 -10.40413 0.7094783 -0.08394501 -0.6979111 
-0.01128306 -8.564693 -11.33205 0.6859786 -0.4362892 -0.5772462 
-7.74954 1.237035 -0.9328604 -0.9856634 0.01739314 -0.01311628 
11.97951 -9.007002 -5.38468 0.5586746 -0.6886081 -0.1426266 
16.26198 9.054772 2.782044 0.7073209 0.6735144 0.2060248 
18.21968 9.395597 -1.36756 0.693562 0.7121984 -0.1042642 
13.27353 6.369636 -8.929021 0.6395141 0.2780989 -0.6659865 
-7.74954 -4.129776 -0.7793131 -0.9856634 -0.05806602 -0.0109574 
10.84729 -3.452923 9.895736 0.6998727 -0.2351044 0.6727505 
7.60323 10.48319 0.3022068 0.7076114 0.7049963 0.02082365 
-7.74954 7.426124 1.839874 -0.9856634 0.1044138 0.02586926 
4.930075 9.326302 4.716887 0.2031795 0.8194544 0.2884829 
-4.513749 -13.73669 -3.579914 -0.1230725 -0.7601144 -0.1947802 
-4.931999 6.7979 -12.49273 -0.1982283 0.3778349 -0.6958593 
-7.187788 9.959946 9.321861 -0.673944 0.4740337 0.4533808 
1.080008 4.205163 10.06605 0.6940254 0.2768103 0.6620954 
-7.126108 -0.009486925 -13.87072 -0.6397169 -0.0001333982 -0.7120289 
-7.345421 4.081848 12.53349 -0.7614152 0.1720131 0.4911434 
2.346075 -10.47283 -0.3568053 0.7226352 -0.6892701 -0.02365462 
0.6300046 4.185102 11.82641 0.7022834 0.2366726 0.6707711 
9.387597 -10.17294 -2.541603 0.7026368 -0.6889836 -0.1721888 
-7.688589 -11.68213 -3.293986 -0.9518418 -0.2140315 -0.05509155 
13.5001 -5.097259 -8.711137 0.7608072 -0.1949836 -0.603391 
-3.407136 -5.08322 13.2923 0.07577533 -0.274868 0.720881 
12.87481 8.850782 6.527005 0.5509296 0.622832 0.3649005 
14.58011 -2.528496 -4.725707 0.6888696 0.2267322 0.4243346 
14.58011 4.93364 0.7995664 0.6882786 -0.4435614 -0.07183767 
-7.33229 11.53644 -6.498975 -0.7541286 0.4644561 -0.258835 
18.90014 9.250805 -0.6621364 0.6941296 0.529231 -0.05075162 
-7.74954 -3.655031 8.243194 -0.9856634 -0.05139095 0.115902 
-7.74954 0.549976 5.883205 -0.9856633 0.007732859 0.08271988 
2.171298 1.962965 -10.30663 0.7234485 0.1291338 -0.6774979 
-7.74954 -10.94711 2.4792 -0.9856633 -0.15392 0.03485841 
-3.303023 -12.42113 -6.951443 0.09448349 -0.6723781 -0.3755163 
18.06824 -3.782304 7.124948 0.7185438 0.3250941 -0.6136385 
-7.749539 -0.6776186 9.494195 -0.9856633 -0.009527535 0.1334916 
0.6300046 -2.786939 -11.53094 0.7120517 -0.1669757 -0.6795119 
14.58011 2.887639 6.912549 0.6880906 -0.2596446 -0.6211547 
11.13802 1.441449 10.39595 0.6987873 0.09781349 0.7080531 
14.58011 -0.253154 2.83376 0.6888099 0.02221187 -0.2542862 
-1.459592 13.34822 4.963308 0.4257309 0.6986237 0.2596235 
-0.9311492 -14.0705 -2.0448 0.5206872 -0.7291733 -0.1063573 
9.614378 6.783056 8.658627 -0.1761606 0.4817926 0.5296168 
14.58011 1.160655 -1.475298 0.688588 -0.1046613 0.132466 
15.15814 -9.415281 0.9920341 0.6983474 -0.7089409 0.07548858 
-1.345749 12.12776 -7.428293 0.4461873 0.6322076 -0.3895905 
-5.838281 12.17478 7.361152 -0.3610788 0.689406 0.4149392 
0.6300046 -6.744849 -8.95379 0.7108048 0.1752413 -0.6682349 
0.6300046 -10.51731 3.826206 0.7223027 -0.6486036 0.2359609 
-7.058154 -6.431278 -12.47259 -0.6020089 -0.3506556 -0.6842414 
0.6300046 -12.2495 -3.009647 0.7007279 -0.6897444 -0.1721017 
-2.04896 14.19249 -0.6505024 0.3198269 0.7505304 -0.03751314 
-6.595895 5.951896 -12.88723 -0.497215 0.3404602 -0.7383764 
17.28009 -8.751844 5.741362 -0.4072143 -0.6074955 0.1024874 
-7.444908 -11.65169 -5.454909 -0.8166209 -0.3826076 -0.2030111 
-0.4689896 14.10874 1.607739 0.6037329 0.7249749 0.08188027 
3.206536 -8.673523 -5.860415 0.4285308 -0.6867557 -0.3712282 
-7.718732 -12.0446 0.5473791 -0.9685677 -0.1948997 0.007696332 
12.19886 -1.066101 -10.42703 0.6958503 -0.07299837 -0.7130542 
18.90014 7.782695 -2.651139 0.7429952 -0.526295 0.2186154 
18.90014 7.561294 3.512996 0.7194059 -0.3497798 -0.1862664 
-7.74954 -4.950341 7.415541 -0.9856633 -0.06960345 0.104265 
-7.749539 -4.451068 -8.974119 -0.9856634 -0.06258351 -0.1261791 
11.75313 -0.1892426 -10.48705 0.6969407 -0.01295787 -0.7160435 
0.6300046 -9.144462 -7.577102 0.7238486 -0.6725384 -0.08174078 
15.92906 3.61272 8.758339 0.7096763 0.268465 0.6486965 
-1.458195 9.599949 10.47506 0.425982 0.5017719 0.548806 
-7.74954 -0.7217072 1.76446 -0.9856634 -0.01014744 0.02480892 
-6.311403 -13.67175 3.822297 -0.4460944 -0.7795419 0.2171921 
11.48766 -10.33685 1.683424 0.6964832 -0.7061716 0.1149983 
0.6300046 5.009733 -9.995535 0.7226264 0.3103641 -0.6169227 
8.814583 1.71797 10.3499 0.705191 0.1155343 0.6985548 
14.58011 5.055259 -1.399351 0.688172 -0.4544335 0.1256228 
2.342078 -8.046177 6.743402 0.4394658 -0.5311149 0.4411935 
-7.749539 1.075303 6.362261 -0.9856634 0.01511914 0.08945556 
-7.74954 -9.441315 3.711859 -0.9856634 -0.132748 0.05219001 
5.29208 10.36145 1.624201 0.7142352 0.6903067 0.1078122 
-7.74954 4.254424 5.719834 -0.9856634 0.05981866 0.08042284 
-6.54759 14.04503 2.33595 -0.488535 0.803833 0.1336312 
8.423155 -8.997799 5.40286 0.02260096 -0.8774419 0.2845137 
13.32178 8.906713 -6.42354 0.6502344 0.6536818 -0.3078317 
-5.000751 -8.66222 11.26376 -0.2105823 -0.4819015 0.6285461 
6.709093 -10.30421 1.965511 0.7101566 -0.6903937 0.1320443 
13.5001 6.238054 -8.13695 0.7078398 0.3537341 -0.5997229 
-7.74954 9.793305 1.978796 -0.9856633 0.1376971 0.02782252 
-6.244257 -1.691739 -14.10139 -0.4340289 -0.09755915 -0.8028277 
-7.74954 -9.864308 -5.886868 -0.9856634 -0.1386954 -0.08277132 
-6.134631 7.158103 -12.31695 -0.4143301 0.4066308 -0.7001675 
-0.1920145 12.36433 7.073254 0.6535028 0.6321436 0.3612027 
15.4572 -9.47364 -0.3086742 0.6931112 -0.7186132 -0.02348848 
-7.74954 6.065027 -9.165647 -0.9856634 0.08527631 -0.1288721 
-7.74954 8.192888 -1.285973 -0.9856634 0.1151947 -0.01808122 
11.86398 9.016991 5.655822 0.3280691 0.7131168 -0.1107478 
0.6300046 9.874571 5.436638 0.721741 0.6172262 0.2596786 
3.429645 1.861323 10.32878 0.7199689 0.1228639 0.6824434 
-7.74954 -8.847246 0.4181604 -0.9856633 -0.1243952 0.005879503 
15.11641 -4.909901 -8.122366 0.7152682 -0.3613284 -0.596998 
-1.765674 7.222485 -12.27187 0.3707309 0.3799432 -0.6459682 
12.95521 -3.51339 -9.869867 0.6939565 -0.241123 -0.6766375 
-3.268229 14.14885 1.149299 0.1007358 0.7654173 0.05853247 
14.58011 -6.424333 -1.773567 0.6902536 0.5744958 0.1604983 
-7.538979 -2.293174 12.4135 -0.8688217 -0.06690904 0.3453356 
5.166451 -1.061955 10.41605 0.7152336 -0.07086308 0.6929419 
-2.167882 -6.928759 -12.43171 0.2984578 -0.3664223 -0.6595026 
-7.419277 -11.78014 5.36082 -0.8023982 -0.4229974 0.169048 
-7.74954 -7.77579 -9.074739 -0.9856634 -0.1093302 -0.1275939 
12.34984 -5.60111 -9.003807 0.5461534 0.01313703 -0.7439004 
-7.400273 -13.01215 -0.4154375 -0.7918528 -0.4710116 -0.02395743 
-0.04643039 -9.844464 10.23055 0.679663 -0.5018548 0.521439 
0.6300046 -5.060023 11.93985 0.6954584 -0.2808782 0.6589587 
-4.375948 8.920341 -11.08302 -0.09831116 0.4912775 -0.6115575 
9.741877 -1.910401 -10.30839 0.7026941 -0.1292241 -0.698178 
1.495818 -4.69482 9.350383 0.6689242 -0.3043786 0.634738 
3.394191 -5.04754 -9.17783 0.4022186 -0.3174245 -0.7299715 
-7.749539 0.08301824 -2.044092 -0.9856634 0.001167267 -0.02874059 
14.58011 -4.635419 -3.962614 0.6895314 0.4149759 0.3563862 
-7.74954 0.8191926 11.73475 -0.9856634 0.01151813 0.1649946 
0.6300046 0.9638273 -13.0192 0.6939793 0.05426416 -0.7151194 
14.58011 -4.781721 1.841467 0.6893464 0.4286628 -0.1649464 
13.5001 2.420775 9.40062 0.7189785 0.1725057 0.6709246 
1.115639e-15 13.01362 -3.7747 0.7220796 0.661795 -0.1919403 
15.72514 -8.896597 0.6930975 0.7022347 -0.1713966 0.01152271 
18.90014 8.007566 1.64599 0.7241514 -0.5585237 -0.1159029 
-1.214003 -9.190368 10.88464 0.4698611 -0.4789683 0.5668902 
0.6072143 -9.798321 9.220911 0.689426 -0.525803 0.4945884 
-7.450712 6.266327 -11.25417 -0.8198416 0.2120134 -0.3728501 
2.874465 10.42598 -0.9115479 0.7211388 0.6876982 -0.06010798 
0.6300046 -7.506694 -10.36835 0.7020589 -0.2631856 -0.6295519 
-7.74954 4.167288 -10.09539 -0.9856634 0.05859346 -0.1419445 
18.21751 6.510546 4.726738 0.7210577 -0.558148 -0.4057611 
18.90014 0.5291287 -8.788881 0.7068685 -0.04308735 -0.07023874 
12.68743 10.32443 1.743532 0.6930428 0.7087183 0.119742 
-7.749539 -6.577234 -2.187375 -0.9856634 -0.0924781 -0.03075522 
-5.596467 -11.55064 8.252516 -0.3176271 -0.6494246 0.4662772 
10.60108 9.298258 4.809323 0.3096725 0.7875786 0.2794668 
-7.74954 -3.125565 6.581112 -0.9856634 -0.04394649 0.09253262 
-4.792358 5.191626 -13.24175 -0.1731361 0.2868881 -0.736163 
1.733515 -6.702001 8.076867 0.596931 -0.4375311 0.5420992 
1.080008 -7.125557 -8.643445 0.7037835 -0.1830644 -0.6448373 
10.86755 10.47478 0.1198554 0.6982869 0.7137839 0.008258684 
-3.513254 0.6007855 -14.19684 0.05670699 0.0305973 -0.7712225 
11.02382 2.640816 -10.15397 0.6993466 0.1801096 -0.6908878 
15.30188 -4.415862 8.387506 0.7140793 -0.3253485 0.6176395 
18.31676 6.525553 -6.858352 0.6922469 0.4957548 -0.5206534 
4.271169 -4.840691 9.270555 0.2789512 -0.2999024 0.7850158 
18.27449 -6.116637 5.252341 0.720054 0.5254572 -0.4511864 
-7.158957 -6.097418 12.29565 -0.6579449 -0.3137148 0.6049059 
5.934921 10.4402 0.8607121 0.7123904 0.6973924 0.05746613 
14.58011 0.2340381 4.562372 0.6887333 -0.02154779 -0.4095366 
-6.899575 -12.71885 -6.312977 -0.5517834 -0.7322743 -0.3633659 
-7.74954 4.754478 3.726767 -0.9856634 0.06684957 0.05239964 
-7.74954 -9.605587 -6.479007 -0.9856634 -0.1350577 -0.091097 
1.033283 -9.859401 -4.840525 0.6933445 -0.6455382 -0.3175004 
-3.502679 9.35746 10.71755 0.05860713 0.5074499 0.5826401 
-3.467805 -13.95445 2.767225 0.06487378 -0.7575319 0.1491921 
8.484975 8.781052 6.639695 -0.4242156 0.5846244 0.4265732 
-4.51887 9.764733 -10.31028 -0.1239929 0.5371523 -0.5725769 
2.116899e-15 10.25852 -9.507684 0.6994876 0.5222329 -0.4839513 
-5.449388 12.72779 6.293814 -0.2911982 0.7155613 0.3523141 
2.628147 7.010761 7.784352 0.3646606 0.4591071 0.5093933 
18.90014 7.282026 5.668681 0.6953712 0.3840051 0.2886161 
3.725919 3.212948 -9.976786 0.7197165 0.2129481 -0.6591699 
2.535728 -10.35357 -1.717415 0.7221262 -0.6819568 -0.112855 
13.26101 0.4940818 10.46618 0.6928029 0.0338309 0.7187888 
-7.74954 3.56082 -0.6186304 -0.9856634 0.05006634 -0.008698098 
-0.007365912 14.10275 -1.676171 0.6866825 0.718336 -0.08538298 
13.33403 -5.431897 8.983431 0.7676429 -0.08445381 0.6123866 
1.711653 -7.894792 6.898915 0.5789698 -0.5164375 0.4517046 
18.06892 -8.941847 -3.175 0.5113937 -0.7419882 0.3318456 
-6.800421 -3.28342 -13.81614 -0.5339662 -0.1888721 -0.7940488 
18.68893 6.97336 4.06577 0.7253413 -0.5942934 -0.3466834 
5.446645 -7.543844 -7.255595 -0.2944056 -0.4941713 -0.4754311 
-4.298651 9.031049 11.0055 -0.08442163 0.4978448 0.6056696 
0.5813666 -6.940426 11.55801 0.6910366 -0.3711366 0.6189845 
5.684168 9.559856 -4.247174 0.4543514 0.7381856 -0.2710947 
2.425234 10.37875 1.434977 0.7224359 0.6833035 0.09429066 
3.871737 -4.613082 -9.378389 0.3350435 -0.2873892 -0.7695614 
14.58011 0.7985001 -2.255019 0.6886061 -0.07211865 0.2024659 
2.349638 -2.861145 -10.06655 0.7233545 -0.1887114 -0.6615941 
-7.035146 11.27119 -8.469605 -0.5892417 0.6288748 -0.4762359 
-7.749539 6.541604 -5.089218 -0.9856633 0.09197713 -0.07155611 
-2.489594e-15 -9.811772 9.550478 0.7145069 -0.4991058 0.4858709 
14.58011 -5.565429 -2.277365 0.6898831 0.4979685 0.205391 
2.92456 8.566405 -6.011942 0.4680467 0.6638921 -0.3828447 
3.177538e-15 -8.177443 -10.76268 0.724209 -0.4158026 -0.5472757 
-7.74954 1.197891 -4.034223 -0.9856634 0.01684275 -0.05672247 
7.239685 10.33418 -1.766936 0.7086478 0.6939528 -0.118625 
-6.806376 -10.54454 9.530471 -0.5350366 -0.6063725 0.5475654 
14.58011 1.874684 -1.288419 0.6885245 -0.1687919 0.1156712 
-1.890406 0.8490399 -14.17512 0.3483176 0.0432406 -0.7478543 
5.7348 10.45229 -0.7152676 0.7129588 0.6976153 -0.04789479 
15.2959 -0.2936646 -8.050186 0.6944957 0.0250683 0.717087 
-7.74954 -0.8441169 -8.854244 -0.9856634 -0.01186857 -0.1244936 
-7.185056 11.20542 7.78192 -0.6724277 0.5344149 0.3842319 
-5.913637 9.037951 11.00067 -0.3746197 0.5124367 0.6223945 
-7.74954 -6.906354 9.168766 -0.9856634 -0.09710565 0.1289159 
18.07852 3.626116 -7.184986 0.7197946 -0.3119552 0.6171921 
11.06072 2.155246 10.25535 0.6991366 0.1467084 0.6980608 
-6.944468 7.22656 -12.26902 -0.5598502 0.416249 -0.706943 
-1.220711e-15 12.59071 6.510103 0.6897322 0.6411813 0.3315341 
7.299678 -1.189312 10.40959 0.7093592 -0.0799541 0.6983862 
14.58011 4.061914 0.3589965 0.6883519 -0.3652625 -0.03226648 
2.101497 7.017228 -7.777076 0.4878103 0.4594521 -0.5088424 
16.29691 -5.030801 -8.043312 0.7078875 -0.3742342 -0.5974047 
-2.98596 -10.62654 -9.448469 0.1514568 -0.5706266 -0.509477 
10.46218 -3.799853 -9.773149 0.700861 -0.2587664 -0.6633208 
-6.08634 11.25263 -8.67812 -0.4056528 0.6380586 -0.4941809 
-5.973831e-16 13.42099 2.088208 0.7218291 0.6825142 0.1061978 
13.13808 10.46892 -0.008369178 0.6918011 0.7198961 -0.0005766638 
13.5001 4.056691 -8.556036 0.7270914 0.2930211 -0.6179971 
4.890161 5.741982 -8.762526 0.1918683 0.3553474 -0.7867066 
11.58197 -0.9693056 -10.43365 0.6975478 -0.06637055 -0.7117962 
-7.584891 0.8820168 -12.41711 -0.8942987 0.03611148 -0.3090548 
-7.749539 -0.3703325 7.921083 -0.9856634 -0.005206993 0.1113731 
-7.74954 -3.420873 -0.2846427 -0.9856634 -0.04809862 -0.004002176 
9.381262 -5.449836 -8.974129 0.1706939 -0.2412421 -0.8231973 
-7.74954 -5.937331 9.569271 -0.9856634 -0.08348086 0.1345471 
12.95157 2.499072 10.1808 0.6940346 0.1712793 0.6979974 
-3.640438 14.19456 0.6268732 0.03385329 0.772851 0.03192592 
-3.935528 13.33338 4.995131 -0.01917163 0.7297843 0.2728608 
8.748073 -8.126574 -7.316638 -0.3704373 -0.5143898 -0.497035 
-7.74954 -4.8276 6.224404 -0.9856634 -0.06787767 0.08751717 
-7.319034 -3.562787 12.75427 -0.7467725 -0.1667981 0.5162581 
5.883213 10.36842 -1.570723 0.7125448 0.6924593 -0.1044229 
15.14282 -0.2100106 -9.483823 0.7155812 -0.01488849 -0.6968906 
0.6300046 12.55717 3.746388 0.6933177 0.6880744 0.2056973 
14.58011 2.15523 -1.865272 0.6884861 -0.1939741 0.1674431 
2.696123 10.18681 2.41491 0.7219371 0.6709836 0.1595058 
-2.41006 3.351573 13.79788 0.2549407 0.1764326 0.7352681 
-7.608903 1.241427 12.31358 -0.9076229 0.03770713 0.2879892 
0.6300046 1.651993 -11.63142 0.71398 0.09946991 -0.6916158 
18.25763 7.697725 -2.352381 0.7214223 -0.6600565 0.2009645 
14.58011 -0.09357744 1.557286 0.6887686 0.007909928 -0.1397111 
-5.615433 -14.13913 -1.260348 -0.321035 -0.7963781 -0.07268169 
-3.790017 11.44097 -8.40913 0.006975144 0.6225027 -0.4616862 
-7.74954 -4.858656 -3.98356 -0.9856633 -0.06831432 -0.05601019 
2.411929 2.194091 10.24549 0.7228875 0.144599 0.6739727 
15.10845 1.909652 -9.286009 0.7155689 0.1410812 -0.6821526 
2.012341e-15 9.222374 -10.83412 0.6886945 0.4696713 -0.5517531 
0.6300046 -2.719406 13.0809 0.6896709 -0.1475342 0.7072672 
15.38659 -6.573096 4.645294 0.6966416 0.5831276 -0.41356 
4.702856 -2.281618 10.22953 0.7166113 -0.1519729 0.6790449 
6.745676 -10.45445 0.7274541 0.7100698 -0.7006505 0.04892018 
-7.749539 -0.2120678 4.393448 -0.9856633 -0.002981739 0.06177337 
-2.158209 -14.21173 0.4306121 0.300196 -0.7531385 0.02483252 
3.674731 5.3057 9.056255 0.3628381 0.332473 0.7378886 
-4.302615 -1.684282 14.10205 -0.08513384 -0.09070313 0.7767923 
17.97093 -8.567181 4.060041 0.3021035 -0.7809219 0.2180337 
6.328315 -10.40967 1.224044 0.7112751 -0.6965082 0.08135211 
7.917703 -1.636105 10.36837 0.707629 -0.109473 0.6974061 
-7.291637 -11.9031 -6.000346 -0.7315699 -0.4962189 -0.2742327 
14.58011 -1.580266 -5.601333 0.6887621 0.1415929 0.5029064 
17.45772 5.706713 -5.669606 0.7141538 -0.4951241 0.4903511 
15.69146 7.939569 1.449807 0.6981044 -0.7035663 -0.1285374 
-5.651148 -12.05323 -7.53474 -0.3274526 -0.680908 -0.422617 
-0.6114522 11.42746 8.428432 0.5781338 0.589251 0.4334439 
3.069644e-15 -6.316144 -12.24545 0.7104957 -0.3213364 -0.6230621 
14.04197 -7.583402 -5.674661 0.7223907 -0.5521618 -0.4124784 
14.17099 9.289158 1.904785 0.7218228 0.6765092 0.138724 
15.01712 -7.280064 -6.093086 0.7159201 -0.5349219 -0.4473744 
2.076133 7.673042 7.121223 0.4937415 0.5020763 0.4662083 
11.936 -4.354543 9.538649 0.5639884 -0.2912083 0.7032021 
-4.716143 13.50343 -4.450459 -0.1594409 0.7485076 -0.2487838 
-7.74954 10.2686 -1.084325 -0.9856634 0.1443799 -0.01524596 
16.68983 -0.1850363 8.059544 0.7069539 0.01510535 -0.7054263 
17.13157 -7.849159 -3.175 0.3765715 0.2946014 0.5834277 
14.58011 6.394672 3.641769 0.6880248 -0.574722 -0.3272701 
-1.261864 10.6434 9.43161 0.4612609 0.5534812 0.4933023 
-7.74954 10.12315 2.52483 -0.9856633 0.1423348 0.03549996 
3.597063 8.309156 6.377771 0.3084053 0.6457746 0.4074814 
-1.100628 14.13213 1.340366 0.4902335 0.734831 0.06826326 
10.85703 8.877619 6.483193 0.1026326 0.637634 0.3407356 
-5.440473 2.672302 13.97989 -0.2895963 0.1490569 0.785477 
14.58011 2.203692 6.177231 0.6881423 -0.1982487 -0.555025 
13.47182 10.27743 2.029701 0.6907794 0.7077156 0.1398569 
-0.5739201 7.44564 -12.11562 0.584878 0.383134 -0.6238523 
13.5001 8.968669 -5.048552 0.7612824 0.6146574 -0.1613819 
-7.556644 10.86171 -6.335361 -0.8786241 0.2898543 -0.1710583 
-1.647115 -14.09116 -1.80873 0.3920349 -0.7398975 -0.09604007 
18.90014 -8.089638 6.418523 0.653819 -0.2476205 0.5933232 
