ply
format ascii 1.0
comment VCGLIB generated
element vertex 786
property float x
property float y
property float z
property float nx
property float ny
property float nz
element face 0
property list uchar int vertex_indices
end_header
3.529025 0.98515 -15.68357 0.7306582 0.1773258 0.6219891 
-0.928035 3.552984 -16.62366 -0.1567376 0.7408738 0.6194582 
-3.459739 -0.3735097 -26.23026 -0.6831262 -0.03214966 0.7083227 
2.953857 2.67443 13.74267 0.7070336 0.6430774 -0.1913905 
-3.49974 0.3124045 -13.79178 -0.6895799 0.1009764 0.6924704 
3.705149 1.44626 8.826728 0.8593346 0.348218 -0.2882779 
3.566567 0.7252669 -13.74349 0.7200699 0.1847587 -0.6400868 
2.213042 -3.314896 1.648942 0.5118632 -0.7238969 -0.4300699 
-1.487002 3.03 26.42587 0.3249474 -0.8449603 0.384913 
-0.764626 -3.258925 -25.91509 -0.1886204 -0.6093647 0.7604202 
-0.0031879 3.452973 -6.0809 -0.03610285 0.673381 -0.7223729 
1.363404 3.425993 -3.504936 0.2519794 0.7206023 -0.6100582 
3.188534 -1.845336 -20.85438 0.643704 -0.4070486 0.614269 
-0.380088 3.317149 -28.99999 -0.044754 0.4567205 -0.8661153 
1.801068 2.940458 26.04735 -0.5196342 -0.7539974 0.3609187 
-2.701226 -3.094584 29 0.1438447 0.177081 0.9487869 
-3.700599 -0.8179547 -11.77515 -0.7723047 -0.2114168 -0.5705454 
3.930886 -0.5798285 5.540887 0.8987432 -0.1201587 -0.3520954 
0.01381433 3.665068 -9.709438 -0.01672845 0.7505997 -0.6318442 
2.741414 2.639375 -9.778781 0.5667461 0.5781319 -0.5537084 
-2.184442 -4.996826 29 -0.01799049 -0.06547341 0.9861835 
-4.180581 -0.1637076 20.92498 -0.5331377 -0.04567492 -0.8305842 
1.022319 3.85314 5.228876 0.2354052 0.8745376 -0.3633854 
0.9868729 -4.76088 21 0.04351427 -0.2371289 -0.965051 
1.292179 -3.169363 -19.57513 0.2092161 -0.6281292 0.7363874 
-1.675437 3.624993 0.4777723 -0.3778283 0.7847379 -0.4725296 
-1.068267 -3.801294 -6.468775 -0.2132764 -0.8348317 -0.4947469 
3.404304 -0.3833556 -26.87737 0.6435997 -0.1190914 0.734894 
-3.044559 -1.124823 -17.16888 -0.8774323 -0.3378264 -0.06353069 
-5.980584 -2.509706 22.69428 -0.8655577 -0.361712 -0.2894416 
-0.5595446 -3.03 25.48644 0.06321923 0.8734956 0.477551 
-3.936466 -2.591208 21 -0.1916668 -0.1236131 -0.9692234 
3.048764 1.259163 -20.42658 0.6804332 0.2432227 0.6506655 
-3.427269 -1.583097 -8.834993 -0.7402137 -0.2960927 0.5730053 
0.6666917 -3.9393 14.78502 0.1757431 -0.9420837 -0.229908 
1.281501 -3.782748 -0.5077746 0.304522 -0.8216931 -0.4730883 
0.8401031 2.690291 -28.99999 0.2504005 0.5963203 -0.686437 
5.609093 -3.255763 25.81142 0.8428949 -0.4820538 -0.08279935 
6.28454 -1.562654 26.10409 0.9457099 -0.2266818 -0.06789981 
-2.200536 2.774989 -8.392486 -0.468514 0.5312322 -0.6779816 
2.501107 -2.659498 -5.179905 0.5326967 -0.5245836 -0.6295749 
3.58183 -1.449886 -13.43541 0.7582403 -0.3347874 0.5319311 
-3.726585 -1.428813 -16.47621 -0.8306528 -0.2810917 0.4634255 
3.490327 5.451374 22.69115 0.5053809 0.7885088 -0.2781632 
-3.7919 2.631676 29 0.09542474 -0.0753096 0.9641894 
-1.491747 -3.02915 -9.330429 -0.2465076 -0.6007197 -0.7471792 
-1.310331 -5.171688 21 -0.07883015 -0.2918872 -0.9461607 
0.6641845 3.531394 -9.77633 0.102155 0.7217998 -0.653074 
-0.9730858 -0.5091953 23.49189 0.4313407 0.2257595 0.8696504 
5.993259 -2.484252 22.66097 0.86827 -0.3576812 -0.2885215 
2.283525 -2.858307 -12.15714 0.4441745 -0.6039196 0.6310254 
-2.904204 1.475221 -11.0006 -0.8095868 0.3919101 -0.4206426 
-2.527985 -1.681402 28.41382 0.7940639 0.4837516 0.3656785 
-0.3829039 -3.974305 11.04071 -0.08014927 -0.936592 -0.2739286 
-0.1728391 -3.992696 -0.6991667 -0.01413533 -0.8759674 -0.4756284 
-0.1064824 3.993747 -9.387009 0.008474281 0.8710618 0.2857784 
-3.450677 1.853661 -15.3547 -0.7408974 0.4172518 0.5080439 
-3.243831 -0.1491916 -22.22578 -0.932278 -0.05087569 -0.03967005 
-4.415715 -1.191484 29 0.1278451 0.03466912 0.9620477 
5.225164 -3.820726 21.94057 0.7517129 -0.5468137 -0.3346531 
3.574246 1.790938 12.17463 0.8477823 0.4287159 -0.222379 
-2.120434 -3.38375 3.049761 -0.4608172 -0.7690781 -0.4095758 
0.7329676 3.408306 -17.34812 0.1064012 0.6817322 -0.7021138 
2.718854 1.805007 -16.60036 0.7399954 0.4328683 0.4507444 
2.125361 -6.117612 21.55252 0.3066122 -0.8733627 -0.3593024 
1.217567 -3.040574 -15.50728 0.3292865 -0.7405785 -0.5339249 
3.986217 0.1223234 16.64086 0.9725635 0.03261561 -0.1340992 
-3.955138 0.5405785 19.69043 -0.9778206 0.1479953 -0.1294271 
1.715963 2.846575 -18.75339 0.284398 0.5645721 -0.7694236 
-3.810393 -1.205554 12.40921 -0.9013794 -0.2961566 -0.2487356 
3.735428 0.1194585 -23.71927 0.7613969 0.04490947 -0.6104811 
-0.181496 3.984005 16.35492 -0.04268252 0.9687057 -0.1432299 
3.782129 1.276443 -15.91377 0.8330976 0.2793109 0.1324804 
1.489359 -0.8356171 23.85329 -0.4480705 0.2506555 0.8578608 
6.180794 1.927282 23.01546 0.8997629 0.2729876 -0.2666008 
-4.056554 0.749722 20.87746 -0.6604414 0.09956083 -0.7036359 
-1.774517 3.581647 9.471335 -0.4220884 0.8271744 -0.2857159 
0.1140956 -3.29131 -17.07735 -0.02063785 -0.6632841 0.7257701 
1.636023 3.993365 29 -0.06765559 -0.1732738 0.9538043 
-3.164813 2.428173 20.5118 -0.7897071 0.6055339 -0.05842643 
0.0970042 3.990829 6.334243 0.02659168 0.9120602 -0.3437038 
3.340832 3.351594 29 -0.06907384 -0.06309116 0.9665473 
-3.431366 -1.080565 -15.00677 -0.7062157 -0.1768572 0.656351 
-1.600353 -3.644437 14.51743 -0.3796638 -0.8771124 -0.2137217 
1.061096 3.846334 13.68027 0.2541074 0.9215387 -0.1936017 
-3.929312 2.064315 21 -0.1824109 0.0856161 -0.9786641 
-3.160845 2.437548 13.484 -0.7686507 0.5944011 -0.1631755 
4.349437 -3.485811 21 0.2536226 -0.2123775 -0.9374367 
3.591172 -1.734986 -0.7677648 0.7980306 -0.3599895 -0.4748567 
0.1638622 -3.984344 -5.074608 0.04183275 -0.871483 -0.1287868 
3.30521 -2.202847 0.48676 0.7441671 -0.4671731 -0.4508097 
-2.818278 2.795664 7.95558 -0.6625473 0.6321449 -0.3145534 
-1.040884 3.851519 -25.58376 -0.2136627 0.8518484 0.3110082 
-1.379839 -3.410643 -22.89788 -0.2565407 -0.7154342 -0.6159705 
3.307654 2.198956 -5.968535 0.7180025 0.4969739 -0.4780055 
-0.3429204 3.9795 -0.124159 -0.06627649 0.8683851 -0.4805401 
2.199635 2.25012 26.60787 -0.7268506 -0.5213451 0.4396226 
3.567091 1.802039 0.6871133 0.785187 0.4076211 -0.4490798 
3.522212 2.841222 29 -0.1034765 -0.09586604 0.9615239 
3.090209 -2.5233 12.25355 0.7407482 -0.5922377 -0.2200932 
-4.09413 -1.22322 29 0.1926184 0.04683691 0.9534461 
-1.369382 -3.685827 -2.743331 -0.2783786 -0.8098874 -0.4997305 
3.015588 2.611698 14.72347 0.7267746 0.6309161 -0.1720299 
1.783615 -3.385268 -26.04084 0.3565234 -0.7276603 0.559628 
-1.713334 -0.09273911 -28.99999 -0.1507777 0.04004338 -0.8693218 
2.844387 -2.45667 -23.85888 0.6194269 -0.4840142 -0.5900865 
1.888213 3.509482 19.12716 0.4664929 0.8691851 -0.0849385 
1.225248 3.785947 17.31957 0.3006035 0.926787 -0.1211103 
0.9181982 3.885456 9.094387 0.2155288 0.9040858 -0.286514 
-3.286031 -0.8929035 -11.9867 -0.6217452 -0.2148621 -0.739028 
2.061354 -3.413971 -18.70358 0.4505253 -0.7441165 0.004741132 
0.4509935 -6.472272 21.39311 0.06756745 -0.9231153 -0.3714172 
-5.037781 -4.06886 27.56849 -0.7728148 -0.6134951 0.03416822 
3.359792 -2.123711 3.568732 0.7656146 -0.4651572 -0.3900324 
2.467897 3.145073 19.28903 0.61172 0.7789649 -0.08179498 
6.241714 -1.682819 28.32706 0.9459633 -0.2399329 0.1741869 
2.066872 -3.09223 -13.46082 0.4041362 -0.6585516 0.603385 
-0.4636205 -3.411297 -11.73157 -0.05154387 -0.6697994 -0.7209435 
3.510144 5.216051 21.1365 0.3359598 0.5137187 -0.6954329 
-1.831145 3.308509 -5.386856 -0.363532 0.7144356 0.564407 
-3.249874 2.299295 -0.4743578 -0.7624629 0.5577396 -0.3009501 
1.040732 3.847798 19.85245 0.2585455 0.9563026 -0.07075 
-3.845783 1.042763 1.520176 -0.9547046 0.2748975 -0.04377299 
-1.747739 -3.078436 -14.25526 -0.3145046 -0.6356514 -0.6784053 
-3.258971 2.307625 19.3553 -0.8086044 0.5772824 -0.07642581 
1.741574 2.77236 -16.30623 0.3954671 0.6870791 -0.5610366 
2.306163 1.047041 -28.99999 0.3784062 0.1990595 -0.8563124 
-2.376994 4.670341 21 -0.1425692 0.2497927 -0.9504265 
-3.399014 -2.090914 6.984977 -0.7732577 -0.4940076 -0.3415326 
0.9107352 -3.03 26.1925 -0.09458793 0.8811355 0.45631 
0.2469006 -3.237217 -10.64721 0.06050033 -0.9480406 -0.1192447 
-1.305478 -3.766707 -27.68286 -0.2747598 -0.8332168 -0.3296461 
-0.2968724 -3.987061 12.22181 -0.06337347 -0.9451817 -0.253712 
-3.949669 0.5384731 8.334776 -0.981341 0.1506345 -0.06348054 
0.7536214 -6.425445 28.26015 0.1099348 -0.9621258 0.1813108 
-3.264962 4.190963 21 -0.1914408 0.231568 -0.9467382 
-3.283859 -0.01977612 -25.87023 -0.7433567 -0.03733061 -0.6228983 
-0.6156561 -6.469297 24.13177 -0.08799824 -0.9490318 -0.171867 
5.225532 3.820238 23.78663 0.7665995 0.5583177 -0.2130912 
-6.399092 1.088973 23.45745 -0.9340496 0.1563761 -0.2424152 
0.5184882 3.617819 -18.47715 0.08010775 0.7462801 -0.624172 
5.196153 -3.859142 21.47396 0.7438499 -0.5493652 -0.3653809 
1.160591 2.143033 24.29824 -0.2342085 -0.4521303 0.8585497 
2.349329 -2.684068 -22.10027 0.4465317 -0.5635877 0.6662471 
1.684104 -6.269571 23.48764 0.246207 -0.9134594 -0.2181991 
5.835593 -2.80089 24.96407 0.8675703 -0.4123333 -0.1386316 
-5.531203 -3.412186 21.60475 -0.789884 -0.4883964 -0.3597646 
-1.789485 2.960521 27.9181 0.5119708 -0.8126203 0.1613628 
-3.500896 0.8380247 -11.36812 -0.6997391 0.2035131 0.6557031 
-3.627176 1.638557 29 0.2313233 -0.1107012 0.9465979 
2.670619 2.36908 -10.53739 0.5613026 0.4515872 0.6625968 
0.1770422 -3.592791 -19.74985 0.00114318 -0.7316415 0.6510462 
0.3413978 -3.794828 -12.72628 0.0995632 -0.8012827 -0.5632498 
-6.19774 -1.867725 25.64896 -0.9280336 -0.271283 -0.1011275 
-6.37045 -1.260711 27.28228 -0.9706147 -0.1823162 0.001308687 
2.850654 -5.836632 26.94965 0.412071 -0.8899613 0.02521369 
2.039194 0.6601261 24.12064 -0.4838002 -0.1592908 0.8586683 
2.618227 -2.197284 -25.72742 0.4815309 -0.4548537 0.7357345 
-5.615654 3.242584 27.11002 -0.8555998 0.4860979 0.001309485 
-3.835198 -1.106745 14.45302 -0.9186115 -0.2740677 -0.214016 
3.337912 -1.743135 -24.63372 0.6853261 -0.3930503 0.5847461 
-2.8014 2.576535 -24.08627 -0.5789902 0.5670057 0.5555637 
-1.706434 -3.006469 -13.05376 -0.2959052 -0.6098695 -0.716526 
4.693727 0.75662 21 0.1497586 0.02701908 -0.9790484 
-3.898935 0.8423856 11.3098 -0.9650701 0.2272284 -0.08100208 
1.576985 2.873423 -17.77036 0.4260585 0.6771454 0.5356467 
3.406477 -2.052697 16.76964 0.8329915 -0.498715 -0.1312307 
-0.5889237 -6.472272 23.31405 -0.08308012 -0.9417238 -0.2315468 
1.944144 -3.471352 15.27741 0.4915203 -0.828359 -0.1781687 
-2.551027 -3.05446 12.51129 -0.6025043 -0.7267458 -0.2478672 
-3.435519 -2.02735 5.795418 -0.7755358 -0.4779283 -0.361688 
-3.960602 0.4726525 12.75678 -0.9823046 0.1347151 -0.08780549 
-3.05111 -2.577914 -21.43373 -0.6873927 -0.5532525 0.3081832 
-2.698125 0.9182621 -28.99999 -0.3001979 0.1405919 -0.8888389 
2.254745 -3.294252 13.05818 0.5480343 -0.7806187 -0.2047109 
-3.152223 -1.352743 -6.941394 -0.5953139 -0.3044503 -0.724785 
-3.718002 -0.9817565 -25.15795 -0.8019636 -0.1693138 0.54846 
-3.912488 0.7681943 -19.10277 -0.8512826 0.1805331 0.3781363 
-2.621831 -5.925278 26.1464 -0.3785869 -0.8941576 -0.03235279 
-2.586265 -2.758648 -15.01398 -0.5720284 -0.5620243 0.5630765 
-3.227994 2.353434 -20.49876 -0.7104469 0.5164478 0.006610036 
-2.361678 2.562081 -10.90994 -0.4958237 0.4771903 -0.7031528 
2.027097 3.429399 7.501225 0.4654643 0.7940841 -0.3147816 
2.550914 4.850811 21 0.1344221 0.2548873 -0.9455442 
2.619156 2.165699 -13.77819 0.4782247 0.4512461 -0.7379974 
1.919243 3.46073 -5.690281 0.4289644 0.7491909 0.4941924 
-0.817353 6.431594 27.01575 -0.1202174 0.9710562 0.03852163 
-3.722671 -0.7188629 -5.527685 -0.7783231 -0.1896233 -0.5691881 
0.24647 3.976696 0.8777548 0.06073318 0.8768538 -0.453512 
1.636318 -3.645515 13.07498 0.424328 -0.8523235 -0.2366138 
-4.681009 -4.49074 23.3 -0.6824803 -0.6528435 -0.2470159 
0.05847359 -5.91869 21 5.523674e-06 -0.3732964 -0.9241339 
-3.449261 1.935883 -18.07271 -0.7600883 0.4071243 -0.4949994 
0.7622854 -3.460663 -17.8563 0.1916788 -0.6826816 -0.6802149 
3.980964 -0.1608361 19.45585 0.9871838 -0.04116648 -0.07878487 
-1.41285 -3.728473 16.31196 -0.3391789 -0.9061767 -0.1830006 
-2.915307 -1.425637 -18.35353 -0.8478442 -0.4280841 -0.2484817 
3.905815 0.8136982 10.40594 0.9170324 0.2004216 -0.2570163 
1.40229 -3.733147 0.4775798 0.3339003 -0.8145407 -0.4560756 
-3.231464 -1.353577 -28.1529 -0.6230321 -0.3090773 -0.6936518 
3.762434 1.289107 6.226781 0.8582257 0.3096334 -0.339503 
3.168324 -0.7117963 -25.35648 0.8923154 -0.1596103 -0.3510917 
-2.605238 -1.547595 25.59922 0.760241 0.4420629 0.470708 
2.844033 2.294804 -27.38807 0.5646483 0.4970086 -0.6259124 
2.426761 3.162714 0.9913375 0.5378763 0.7020088 -0.4431855 
-6.461663 -0.4137163 23.12606 -0.9393598 -0.05911368 -0.2645566 
2.556756 -1.631567 26.19778 -0.7631558 0.4577426 0.4483984 
-2.074784 1.514779 -28.99999 -0.2056215 0.2416722 -0.8651516 
2.215837 -3.312029 20.4645 0.5598385 -0.8221467 -0.06647085 
-1.217141 -3.101853 -25.59129 -0.1875352 -0.6030964 -0.7690287 
3.544924 -5.417569 26.09818 0.5187652 -0.817661 -0.03629233 
-4.27491 -3.155231 29 -0.02734571 -0.01039763 0.9837394 
-3.872308 -0.9002553 19.09568 -0.9534013 -0.2256522 -0.1352503 
3.458312 -1.552618 -8.396358 0.7187216 -0.3540414 0.5667089 
-0.7927005 6.030559 28.86397 -0.06717866 0.5195487 0.8225069 
-3.278925 -0.3932212 -28.62318 -0.6637971 -0.03858029 0.7262723 
-6.43396 -0.7126842 21.65965 -0.9199053 -0.1018316 -0.3571624 
0.408114 6.472272 28.04012 0.06173304 0.9865124 0.1133217 
3.320131 1.352233 -21.85625 0.6836358 0.2431376 0.6597723 
-0.1342282 -3.982769 16.8299 -0.03437578 -0.9680995 -0.175804 
-3.569469 1.727203 -28.06249 -0.7836189 0.3610719 -0.4979377 
1.256931 -3.932917 20.87943 0.2295994 -0.6434376 -0.6998456 
-4.585802 4.577533 23.07403 -0.6607124 0.6684549 -0.2534648 
4.874672 1.833899 29 0.0006800354 0.008118503 0.9804275 
2.062426 3.402759 16.50454 0.5013565 0.8304247 -0.1367541 
2.718106 1.87496 -20.38813 0.6125362 0.3563935 0.6531585 
3.2247 1.101275 -16.77198 0.6353415 0.1743918 0.7363999 
-0.2988333 3.243488 -14.9542 -0.1242437 0.8731033 -0.4089575 
-3.058354 -1.745643 -11.1706 -0.6300928 -0.3087059 0.6874741 
-5.992174 -2.48643 22.32211 -0.8633838 -0.3575231 -0.3135652 
-3.894042 0.2643601 -26.76754 -0.8367543 0.03031245 -0.5279562 
2.813497 -4.462552 29 0.01138276 -0.02601857 0.9814675 
-3.115585 1.65691 -18.88101 -0.6050717 0.3663543 0.6793326 
-2.527126 -5.099953 28.99622 -0.06135764 -0.1196835 0.9879191 
-1.25481 -6.349819 27.90271 -0.1889307 -0.966894 0.103796 
4.107552 -5.013515 27.0421 0.6135375 -0.7634259 0.02858288 
1.40477 -2.934804 -20.67706 0.3895117 -0.8411047 0.3518384 
-4.505847 4.651099 28.31784 -0.6739788 0.711037 0.1805383 
2.833334 1.617627 -4.122664 0.7568409 0.3850016 0.4674152 
2.848641 2.572706 -28.18549 0.6443755 0.5373852 0.5080036 
-3.867866 -0.9634519 -21.49154 -0.8539376 -0.1735976 0.4870291 
3.372858 0.2983471 -13.05779 0.6277881 0.01290395 0.7636601 
-0.7778362 6.380007 28.41641 -0.1082456 0.9101275 0.3295478 
0.4747816 -3.969123 -1.257727 0.1256732 -0.8640671 -0.4855811 
-2.362252 -3.213226 -1.354264 -0.4978848 -0.7152581 -0.4846425 
2.520656 -3.082172 17.43319 0.6212046 -0.7523974 -0.1185025 
1.610745 -2.083731 -28.99999 0.2050898 -0.2375351 -0.9099762 
-2.185003 -3.340706 15.04666 -0.5220863 -0.8075603 -0.2045416 
2.374413 -3.213643 7.344718 0.5605408 -0.7309542 -0.3177816 
-5.142125 3.930686 26.44086 -0.7791477 0.5852989 -0.04118595 
4.793738 -1.598117 21 0.2109914 -0.08023377 -0.9632582 
3.456967 -1.608611 -23.7642 0.7464339 -0.3137827 -0.5576792 
-1.302393 -5.797157 21 -0.08603078 -0.3672789 -0.9226962 
2.143402 2.720788 -20.43874 0.4500105 0.5131273 0.706734 
1.954388 -3.282465 -17.63071 0.4340306 -0.6822458 -0.559818 
2.078306 -6.135841 25.11242 0.3058466 -0.9094071 -0.09943093 
1.616942 3.438195 -27.20937 0.3108798 0.7398168 -0.5671325 
1.133373 -3.817328 12.64354 0.2955769 -0.8960136 -0.2536456 
1.412142 2.922524 -7.71567 0.4296166 0.8378625 0.3070411 
2.495651 -1.737405 27.53602 -0.7769591 0.4804574 0.3984996 
1.093407 3.830696 1.868019 0.2481513 0.8501315 -0.4303463 
1.235562 -3.798645 4.36579 0.3064047 -0.8490452 -0.3899235 
-2.077439 -2.46177 25.85577 0.6992278 0.5323981 0.4707192 
-3.791811 -5.264703 26.8835 -0.562343 -0.8014278 0.0203825 
0.944029 5.479215 21 0.04573874 0.2989372 -0.9416289 
-3.419282 -0.3734818 -24.95692 -0.6683801 -0.03080794 0.725745 
-0.7352786 -6.446937 26.71807 -0.1091271 -0.9701951 0.01695292 
-3.593963 0.481599 -26.94427 -0.7341807 0.05912567 -0.6488215 
-0.8743119 3.899996 13.34648 -0.2096094 0.9301777 -0.2042846 
-3.990411 -0.2399963 11.77986 -0.9732628 -0.05832789 -0.1413825 
0.3580665 3.96604 10.45472 0.0774156 0.9313791 -0.259798 
1.054733 3.079185 28.74617 -0.1120708 -0.811268 0.4780097 
-3.566099 -1.770771 14.45251 -0.8525394 -0.4327128 -0.2141519 
-2.955216 -1.887407 -14.37415 -0.5602507 -0.4111819 -0.6967809 
-2.772605 1.993346 -12.16376 -0.5603548 0.3502392 -0.7378879 
1.906058 4.367888 29 -0.0406009 -0.07409003 0.9667315 
5.091499 -1.001816 29 -0.0001007728 0.004449283 0.9795797 
2.350166 -0.2191564 -28.99999 0.3251967 0.005933888 -0.8958494 
2.646739 2.977217 11.3801 0.6223773 0.7079606 -0.2380109 
1.074698 3.840742 10.58385 0.2537435 0.9024813 -0.2556278 
-1.403726 -3.735871 13.92947 -0.3291655 -0.897132 -0.2237711 
0.006678686 3.999369 10.35758 0.005475869 0.9376359 -0.2626837 
-5.64981 -3.173991 22.08834 -0.8119615 -0.4551621 -0.3286183 
-6.238702 -1.723757 21.98452 -0.8954219 -0.2465218 -0.3362241 
-2.860767 -2.789531 16.69235 -0.6918781 -0.6825784 -0.1763391 
2.875673 -2.450728 -7.59446 0.6282733 -0.4854049 -0.5801225 
2.232279 -3.241682 -20.04974 0.5011942 -0.6887507 -0.5087954 
0.2505036 3.969936 -9.401825 0.08623862 0.8643862 0.3005351 
3.166388 2.372607 -17.02782 0.7036763 0.5058297 0.4864827 
-2.805501 -1.792784 -3.551044 -0.5531228 -0.2998846 0.7739751 
-3.681492 -1.538018 2.345526 -0.8159587 -0.3604853 -0.4199612 
-0.09698605 -3.312485 -19.60307 -0.06448023 -0.6209869 0.7778993 
3.160713 -1.73447 -10.80014 0.6248395 -0.3827851 0.6508673 
-3.976408 0.1509475 14.46855 -0.9872965 0.04922825 -0.08862633 
1.141495 3.626748 -23.06774 0.2689271 0.7609444 0.560362 
-1.703716 -3.484411 -27.51182 -0.392417 -0.743991 0.5162756 
6.430428 0.7508003 25.91644 0.9651473 0.1058235 -0.08419307 
2.353948 -3.223008 0.3685045 0.5395207 -0.6955099 -0.4555858 
-1.166394 3.100447 -8.577997 -0.2632245 0.567376 -0.7750968 
2.401577 5.802872 21.13089 0.2209543 0.5633925 -0.7045257 
-2.314473 -6.04435 26.70345 -0.3376654 -0.9148068 0.01094753 
-0.5988243 3.802632 -8.317378 -0.1530609 0.8089374 -0.5401635 
-6.027274 -2.415941 25.13443 -0.8973747 -0.353995 -0.1313069 
5.959937 2.551172 21.48426 0.8524002 0.3625975 -0.3649584 
-3.187598 -2.10066 -13.82957 -0.6978913 -0.4188707 0.5509434 
0.6023498 -3.67397 -21.04433 0.09882584 -0.7666534 0.6039281 
0.1722916 3.251301 -28.73469 0.02944086 0.8891444 -0.4459341 
1.20316 3.00774 -15.09908 0.3311108 0.9200103 -0.1627445 
0.08337599 -4.522954 21 -0.001026943 -0.2010234 -0.9777107 
-3.32282 1.671682 -2.734375 -0.6804617 0.3747821 0.5967894 
3.807293 1.160289 0.582873 0.8381176 0.2710058 -0.4508094 
-2.650005 -1.868826 28.74156 0.5580848 0.3574899 0.6283449 
5.891209 -2.183005 28.70604 0.6960719 -0.2587656 0.6371602 
-3.978476 0.2896197 -1.200382 -0.9641263 0.06892455 -0.1024126 
1.507731 3.703001 1.237659 0.3453358 0.8168922 -0.4408996 
5.130183 0.01241853 21 0.1968182 0.0008142377 -0.9643272 
-6.469259 0.3317428 25.67292 -0.9674811 0.04810051 -0.1026342 
-2.931844 -2.282418 -19.22819 -0.5887296 -0.5028559 -0.5984254 
4.935377 4.204464 27.54653 0.7564281 0.6355274 0.03406509 
1.969745 -3.467106 7.974308 0.4759228 -0.7916411 -0.3109052 
-6.275969 1.59278 27.07936 -0.9541395 0.2343214 -0.009006605 
-6.191546 1.889494 27.48273 -0.9457521 0.2803136 0.01864645 
3.597908 -1.717156 -0.3745292 0.8011801 -0.3574299 -0.4671752 
3.639833 -0.9494591 -5.012951 0.7729145 -0.1690684 -0.5828235 
-3.020246 -1.184357 -22.14098 -0.87611 -0.3818162 -0.1491382 
-3.515059 -0.2989499 -24.45789 -0.693764 -0.1010155 -0.690639 
1.972448 -2.833037 28.93906 -0.362447 0.4334478 0.6843609 
0.8364465 6.428025 21.6866 0.1231812 0.9194024 -0.3498783 
3.731939 0.00144414 -9.517084 0.7549403 -0.04966853 0.6177061 
3.890995 0.5745341 -11.08546 0.8297184 0.1497699 -0.522645 
4.3764 -4.514599 28.73322 0.5122893 -0.5301484 0.6642405 
3.729881 1.207577 -18.56056 0.8051327 0.2823209 -0.505577 
-0.4742839 -6.366409 28.58975 -0.06954455 -0.8541529 0.4996842 
2.443284 -3.155973 14.85722 0.5953555 -0.7570852 -0.169384 
2.198775 2.570836 -26.64438 0.4526373 0.4641482 0.7511638 
6.131568 0.703803 21.03344 0.4486889 0.05522316 -0.8618701 
-2.159722 -2.629114 -18.1109 -0.3836038 -0.5373697 -0.7343344 
-6.271582 1.608195 22.87733 -0.9091099 0.2333601 -0.2776606 
-0.5231692 3.375615 -14.00167 -0.05758678 0.6596404 0.7331752 
-2.14911 2.439686 -6.113744 -0.6095573 0.6608133 -0.3073417 
-2.323979 2.451496 -11.35787 -0.4135264 0.4996201 0.7485249 
2.987393 -0.8856833 25.52645 -0.7933942 0.3696034 0.4772055 
3.595108 -1.727574 7.029899 0.8342482 -0.3858462 -0.3221405 
3.360082 2.123808 20.31525 0.8372182 0.5294703 -0.06166595 
3.490137 -1.92696 18.9191 0.8635729 -0.4749828 -0.08915649 
3.050571 0.6758385 -28.99999 0.4197293 0.1216049 -0.8911476 
-0.2115817 -3.992351 2.993131 -0.02888547 -0.8960365 -0.4122127 
-0.5826747 -3.943193 4.182109 -0.1120024 -0.8941286 -0.3915395 
3.242116 2.306904 7.481098 0.745077 0.5392525 -0.3150094 
-2.324067 2.040704 -28.99999 -0.2652977 0.2914208 -0.8770409 
-2.833789 -2.231068 -6.788372 -0.5525725 -0.483301 -0.6459863 
3.123454 1.766786 -4.955436 0.6159705 0.3871522 -0.6541374 
-0.8957501 -3.879325 14.24762 -0.2094271 -0.9311975 -0.2186859 
2.207947 -3.321809 8.154959 0.5261987 -0.7606097 -0.3015164 
2.226574 -2.700607 -17.78317 0.4707605 -0.509245 -0.6963342 
0.1029913 -3.677893 -25.31091 0.05603394 -0.759181 -0.6168104 
-2.364912 2.932068 -16.59137 -0.4746608 0.6385145 0.5735738 
3.633247 1.624225 -0.008500695 0.7962087 0.3684396 -0.4627157 
-0.1188093 3.992898 6.93813 -0.02041582 0.9149836 -0.333891 
-0.9290309 3.889754 3.582027 -0.2104061 0.8702881 -0.4031884 
-1.141502 3.814525 19.37237 -0.2819189 0.9449623 -0.08141979 
0.9903858 -3.864473 5.825848 0.2419847 -0.8758588 -0.3730313 
-0.3870452 3.973186 5.902678 -0.08156916 0.9026284 -0.3584686 
2.440963 3.163929 11.85099 0.5798131 0.7499838 -0.2287008 
3.934913 0.7068359 -22.24924 0.8549101 0.1702161 -0.2212374 
-3.746249 1.338002 3.078565 -0.9252645 0.3475208 -0.08947067 
-0.06253369 3.994991 -24.35744 0.02938588 0.8702174 0.4820569 
-1.789848 3.575069 12.73619 -0.4322021 0.8450823 -0.2182559 
3.407257 1.609736 -23.20852 0.7285476 0.3191605 0.5720844 
-2.790082 5.860098 26.46765 -0.4013982 0.8890306 -0.009995647 
3.815931 1.141084 3.009541 0.8529817 0.2717593 -0.4029137 
-3.545262 -0.05662558 -3.204208 -0.705943 -0.046657 -0.6792514 
-3.270671 -2.298844 -0.1694112 -0.7062004 -0.5250206 -0.4637859 
1.621177 -3.641025 -14.95373 0.3486575 -0.796483 0.1584315 
-1.146 -3.823066 5.952402 -0.2475409 -0.8770473 -0.3607855 
0.2281747 0.1094117 -28.99999 0.1113439 0.08293331 -0.855353 
-3.648782 -1.042392 -16.76511 -0.7579404 -0.2530101 -0.5735262 
3.667533 0.8275827 -26.99194 0.7740752 0.1520302 0.5831258 
0.6143934 -3.944262 -0.5609348 0.1566448 -0.8614992 -0.4746818 
-2.803313 -2.851542 12.81474 -0.6610327 -0.6836593 -0.2425403 
-4.149247 -0.8298441 20.92979 -0.4622642 -0.08219621 -0.8390958 
3.817883 2.475501 29 -0.115483 -0.07150486 0.9622191 
0.9928288 3.859737 1.486724 0.2242498 0.8545402 -0.4386426 
-1.028825 2.539673 -28.99999 -0.06500904 0.452784 -0.7905505 
0.4139027 3.957664 13.7683 0.09488916 0.9484242 -0.1931917 
6.442369 -0.6219373 26.09693 0.968864 -0.08712693 -0.07049327 
0.4344949 -5.970976 21 0.02252853 -0.3806174 -0.9217591 
6.465063 -0.3770331 25.76757 0.9684714 -0.0528184 -0.09337148 
-2.254388 2.129382 24.68998 0.6936529 -0.4910685 0.5192655 
0.9640305 -3.867928 10.32405 0.2427755 -0.8996568 -0.298825 
-1.669868 3.10595 -6.49193 -0.3008411 0.6359584 0.6831618 
1.986821 2.618726 28.38082 -0.7086384 -0.5917303 0.3689752 
-3.699326 1.481483 5.51286 -0.910231 0.3858902 -0.1103016 
-0.9787635 3.594944 -20.40285 -0.1716065 0.7589346 0.5939658 
2.257487 -2.893056 -3.414128 0.4398409 -0.6108823 0.6277782 
3.366451 1.679409 -26.12061 0.6961629 0.3804933 -0.5775299 
1.746005 6.257999 23.76843 0.2562898 0.9143356 -0.1976374 
0.01422267 3.353669 -28.99999 0.01088442 0.4690729 -0.8407454 
1.467628 -3.03 27.5508 -0.2740715 0.8733258 0.3515457 
2.457238 -5.967923 28.26615 0.3529752 -0.898586 0.1813093 
2.360569 -2.227005 -6.798145 0.6705923 -0.6627043 0.1117729 
-3.603249 0.6829122 -25.67694 -0.7440039 0.1078641 -0.6278683 
-2.109527 3.042093 -5.326257 -0.4162863 0.6498631 0.5982826 
1.28262 -3.784886 -9.964931 0.2729711 -0.8283951 0.2028423 
3.42613 -1.578007 -12.13584 0.7083665 -0.3587442 0.5759745 
-3.040882 2.559101 15.17718 -0.7414967 0.6105477 -0.1672546 
3.755372 0.02519079 -13.71692 0.7691346 0.02027529 -0.6042073 
-0.7727468 -3.913729 5.723941 -0.1576549 -0.8965998 -0.3649557 
2.429118 1.852645 25.28344 -0.7368006 -0.4691892 0.4828484 
-3.238586 0.3198874 -6.079341 -0.9209363 0.08840022 0.2720721 
0.0988331 3.908196 29 -0.009889736 -0.2682105 0.9439747 
4.910461 4.237459 24.20935 0.7253217 0.6204482 -0.18528 
-3.668647 -1.570488 0.9507467 -0.8053093 -0.3664358 -0.4436785 
-4.902483 -4.248024 25.26383 -0.7321479 -0.627969 -0.1176124 
1.964371 2.587712 -16.46144 0.5582355 0.7618126 0.09762783 
1.76826 3.249607 -6.788407 0.3899769 0.661025 0.6094248 
1.856747 -6.221674 24.11171 0.272634 -0.9123356 -0.1725462 
3.984335 0.1365084 1.299283 0.8852394 0.05210076 -0.4356532 
3.910004 -0.7523662 3.077268 0.8822494 -0.1518993 -0.400366 
-2.921986 2.443581 -20.32986 -0.6059994 0.5399675 0.5537258 
5.703165 3.066841 22.90242 0.8302288 0.439755 -0.2736253 
-0.6257293 -3.693121 -4.06319 -0.1061256 -0.777024 -0.5861591 
3.590211 -1.094911 -15.01996 0.7655536 -0.1962004 -0.5818865 
-0.5711259 -3.225761 -26.85043 -0.1015357 -0.7670496 -0.5849342 
-3.985553 0.007624231 -20.39683 -0.8704857 -0.003637779 -0.1355012 
0.1032844 -3.422702 -17.95526 0.0632194 -0.6644176 -0.7266383 
-0.1636145 3.318452 -12.38787 -0.07430627 0.6246297 -0.7726282 
1.554263 3.260246 -4.82069 0.2804159 0.6792719 -0.6483205 
-3.299922 -1.481436 -26.83324 -0.6545748 -0.3395326 -0.6439648 
-2.454955 2.818798 -5.320582 -0.492507 0.6107031 0.5849949 
-2.589552 2.804749 -5.722368 -0.5718605 0.5761893 -0.5568079 
-3.168972 -2.412373 11.33564 -0.7398413 -0.5788758 -0.2676184 
3.750771 0.2834861 -28.60335 0.7948239 0.04727376 -0.3381123 
-3.828024 1.089551 12.51385 -0.9430549 0.2974586 -0.07874855 
-0.4402665 -3.649759 -20.3447 -0.06163491 -0.7555413 -0.6183568 
-1.694407 -5.851731 21 -0.1134322 -0.3790744 -0.916997 
-3.317431 -1.577559 -21.79725 -0.666415 -0.3605159 -0.6199016 
1.585582 5.431921 29 0.03206714 0.110564 0.9925027 
5.00151 -2.661203 29 0.09421661 -0.04530209 0.9941036 
2.548754 -5.953589 22.74221 0.3688762 -0.8609807 -0.2723365 
3.865786 -1.001728 -0.6741087 0.8540328 -0.1980285 -0.4738614 
-2.698448 -1.808907 -24.70318 -0.7955383 -0.5072945 0.317183 
0.09800123 -4.921189 21 0.001425478 -0.2497736 -0.9626641 
-3.841833 -1.100456 0.6102122 -0.8444905 -0.263739 -0.4489866 
-2.063576 -3.179123 -15.37504 -0.412165 -0.6878809 -0.5670663 
3.788524 1.210262 17.73513 0.9293641 0.3002121 -0.1126443 
0.3541117 3.966519 0.5282817 0.08293707 0.8727064 -0.4602827 
-3.776463 0.06624597 -5.178193 -0.7928287 0.04778997 0.5787411 
0.6626663 -3.937374 8.16696 0.171555 -0.9063278 -0.3354802 
-2.555337 -3.066976 -25.12101 -0.5849656 -0.6611363 0.4666624 
-3.530807 -1.829668 20.42833 -0.8757855 -0.4558434 -0.1125236 
-2.053614 3.170449 -20.37637 -0.413771 0.6854942 0.5628771 
0.9983387 3.670714 -10.92529 0.1820295 0.7842801 -0.5648092 
0.4350801 3.281476 -17.4268 0.03861337 0.6267191 -0.7734823 
0.7698776 6.440469 27.98073 0.1160614 0.9811776 0.1091293 
-2.583026 0.4812892 -28.99999 -0.2801058 0.09743471 -0.8804669 
2.849558 2.093972 -10.53151 0.589726 0.3880764 0.6813972 
5.593409 -3.287261 21.64628 0.8019372 -0.4683514 -0.3542296 
3.64769 1.597326 7.316458 0.8384863 0.3773185 -0.3181574 
-2.910002 2.495624 -14.09573 -0.6068506 0.5529913 0.5427819 
-0.04151141 -1.053462 23.46528 0.02214972 0.4782227 0.8737589 
-1.09397 -4.417359 29 0.04510312 0.1235062 0.9609337 
-0.9466901 4.158457 29 0.04804546 -0.1868497 0.9530244 
0.482596 3.954371 1.559386 0.1084759 0.8763347 -0.4391133 
-3.772732 2.994189 29 0.05583161 -0.05510712 0.9696045 
0.5004081 3.949162 11.78901 0.1147259 0.9348736 -0.2329861 
-2.31247 -3.255258 -15.17021 -0.5146975 -0.7152398 0.08727287 
4.667145 -0.7672143 29 -0.09719348 0.006537206 0.9665521 
-0.1613856 3.411718 -9.837011 -0.07196116 0.6596324 -0.7323975 
-6.395884 -1.123599 24.71628 -0.9469454 -0.1616362 -0.1624314 
-2.226687 -2.432029 -6.943977 -0.4309983 -0.5410684 -0.6927572 
-0.9384823 -1.710475 -28.99999 -0.08573794 -0.1852942 -0.9000784 
1.614029 -3.64602 1.980616 0.3846964 -0.8009194 -0.4301661 
1.730904 -6.231831 21.30479 0.2393278 -0.8461068 -0.4240065 
-0.3881143 -1.503319 23.76492 0.1209467 0.4970589 0.8576934 
3.894497 0.9101952 11.27424 0.9190907 0.2213238 -0.2400221 
-3.552877 -5.412645 23.66687 -0.5142702 -0.7936182 -0.2098673 
2.151889 3.354148 1.438242 0.4782958 0.746395 -0.434675 
0.4254912 4.182287 20.96125 0.04028898 0.4090363 -0.9091837 
2.528913 2.917644 -24.42758 0.556748 0.6228693 0.5198066 
3.942511 0.4829969 -14.81448 0.850755 0.1241671 -0.5013477 
-1.292323 3.779101 4.570979 -0.2828086 0.8496915 -0.3911033 
-2.906527 0.3278981 -28.99999 -0.3311105 0.06164858 -0.8948696 
1.167234 3.433431 -28.53965 0.2075418 0.7407381 -0.6021596 
2.962373 3.991291 29 -0.02280143 -0.03311808 0.9727246 
3.26513 0.4046294 26.34057 -0.8831978 -0.1806437 0.380381 
-2.239999 -3.148307 -13.78438 -0.5074553 -0.6626638 0.52389 
1.756286 3.067797 -24.87978 0.3124016 0.6353506 -0.6805686 
0.02678586 3.249277 -18.86775 0.02136669 0.9097309 0.3032055 
3.015407 1.32858 -10.42393 0.6823034 0.2698837 0.6382536 
-0.003492534 -6.472272 23.11101 0.0006827191 -0.9395714 -0.2461917 
-1.162364 3.81985 2.353504 -0.2544326 0.8463809 -0.4334493 
-5.902829 2.66586 26.31641 -0.8905981 0.3957941 -0.05308179 
6.296422 1.520891 25.17041 0.9387129 0.2145985 -0.1281034 
1.446866 -3.724238 12.69729 0.3819104 -0.8691839 -0.2429206 
-1.792326 3.519663 29 0.1285656 -0.2264856 0.9442676 
-3.109378 1.996402 -6.489853 -0.6302946 0.4378499 0.6075761 
-3.467027 5.090033 21.01879 -0.2462094 0.3546009 -0.8845775 
3.797608 3.489498 21 0.1695292 0.1601908 -0.960328 
-2.871917 -2.771456 2.385003 -0.6278838 -0.6345064 -0.4204583 
3.740955 0.287031 -22.44987 0.7648261 0.08625799 -0.6024492 
-0.4442709 -3.962986 -21.38876 -0.08534637 -0.8703047 -0.3339206 
3.945229 0.4624592 1.313459 0.8753876 0.1211212 -0.4357662 
2.813916 2.815697 12.44448 0.6663692 0.6737109 -0.2170081 
-2.956083 -0.9399134 26.74057 0.8101887 0.3870302 0.4326526 
3.22389 -2.32651 14.53632 0.7773486 -0.5591007 -0.1749206 
2.767413 -2.862696 1.185044 0.6340217 -0.6153263 -0.4388271 
1.183536 3.342054 -4.8298 0.2039954 0.682143 -0.6712176 
1.130954 3.115809 -21.21722 0.170747 0.6069023 -0.7707272 
-3.254727 2.067863 -20.64087 -0.7091779 0.4239993 -0.5376474 
2.328506 -6.038913 24.73816 0.3408453 -0.8919744 -0.1266855 
0.9657756 3.872053 9.90742 0.2275579 0.9057105 -0.2698983 
1.001341 -1.771147 -28.99999 0.1419978 -0.1950836 -0.9056361 
2.121237 2.38591 27.99354 -0.7062768 -0.584259 0.3707076 
2.203703 2.369989 28.72858 -0.6761876 -0.5034227 0.4527372 
-3.487605 1.932433 -13.04639 -0.7707748 0.4113626 -0.4364984 
-3.740137 1.346603 -0.5987557 -0.9260189 0.3428077 -0.09385911 
-1.463756 -6.31076 26.00974 -0.2177103 -0.9432145 -0.03424332 
4.387651 2.117105 21 0.1656233 0.08053524 -0.9732655 
5.438456 -1.687514 21 0.3084808 -0.09984505 -0.9359634 
-0.5735252 3.831531 -1.068812 -0.09205297 0.7336137 -0.6443612 
-2.928417 2.69302 0.04621583 -0.6706086 0.6182377 -0.387238 
3.628644 -0.7993972 -20.80596 0.7466732 -0.2004347 0.603909 
1.35855 3.107441 -5.350652 0.3007284 0.5825742 0.7411776 
3.680359 -1.498038 2.26591 0.8298609 -0.3182437 -0.4157104 
-2.363252 4.572023 29 0.01132936 0.009413354 0.9782436 
1.866502 -2.699529 -15.67976 0.4045309 -0.6702068 0.5595753 
1.145378 -3.825937 -3.739083 0.2473954 -0.836093 0.09644212 
2.708613 -2.117363 -5.738865 0.5051499 -0.4408491 0.722532 
3.690907 -0.9400742 -13.36412 0.7733135 -0.2270879 0.5650505 
2.449368 -2.215588 -15.66143 0.4791408 -0.4983938 0.687372 
-1.947443 -3.493157 -2.589558 -0.4465156 -0.7635884 0.4413706 
3.006075 2.635754 0.4789745 0.6614739 0.586112 -0.4533348 
-3.942719 -5.16378 23.62979 -0.5707038 -0.7572441 -0.2137011 
3.510788 -1.899466 5.120612 0.8064023 -0.4190472 -0.3594036 
2.667069 -2.952463 11.06562 0.6415788 -0.6860628 -0.2444074 
3.295166 0.4645263 -6.762831 0.6132355 0.03964853 0.7843938 
-5.526978 3.42067 25.75411 -0.829665 0.5062242 -0.08755665 
-2.185851 -2.563445 -11.02141 -0.4523634 -0.4614655 0.7504472 
0.06061619 -3.976197 14.93483 0.0172907 -0.9551563 -0.2119858 
-2.692459 4.387697 21 -0.1545301 0.2321886 -0.9532364 
-1.066087 -3.129689 -25.89098 -0.2706464 -0.6357403 0.6838024 
0.3524036 -3.962237 19.29803 0.09631493 -0.9733826 -0.1501625 
-1.376776 3.353858 -12.82016 -0.2437832 0.7028584 0.6353219 
-6.214577 -1.808548 23.32443 -0.9062138 -0.2591263 -0.250839 
3.579365 1.118232 -25.72717 0.7559099 0.2133177 0.5818284 
3.325924 -2.17288 18.28332 0.81973 -0.5340893 -0.1015637 
-2.236736 -4.320628 29 0.04768641 0.04244066 0.969888 
3.64499 -1.068488 -23.37314 0.7630695 -0.2505308 0.5644909 
-2.492507 3.1143 13.3193 -0.6027338 0.7372135 -0.2053318 
2.65388 2.971604 12.03364 0.6262531 0.709631 -0.2251034 
2.728948 2.238196 -28.02034 0.5745052 0.4207108 0.6668459 
-3.784409 1.236079 14.80577 -0.9287119 0.3397275 -0.08565868 
-2.658386 -2.668828 -2.510527 -0.586509 -0.5384428 0.5708868 
-0.4623902 3.545321 -8.476936 -0.1261055 0.7110709 -0.6604638 
1.736629 -6.259751 21.68858 0.2511339 -0.8950978 -0.3494959 
3.243202 0.3128555 -5.44528 0.8942801 0.06070112 0.4143069 
3.108951 -1.893956 -9.586568 0.6210186 -0.4132926 0.6314086 
-2.299372 -2.382049 -3.489302 -0.4849937 -0.4412608 0.739063 
-1.292383 3.13941 -22.27709 -0.2898895 0.5881054 -0.7397667 
-1.556672 -2.859577 -4.622491 -0.451227 -0.799261 0.3860579 
5.610248 -3.158258 28.47466 0.7914929 -0.4494529 0.3801775 
3.788124 -1.210857 3.730259 0.8583224 -0.2598462 -0.3873584 
5.128885 -3.948218 26.92041 0.7803673 -0.592765 -0.007975513 
-3.510895 -5.438639 22.85023 -0.5047362 -0.7899894 -0.2683289 
2.168348 -3.339315 -17.36819 0.4597825 -0.7380071 0.4869622 
-3.131548 -1.577721 -2.426667 -0.6417663 -0.2725956 0.6913685 
-3.834295 -0.6347926 -13.95655 -0.8289824 -0.1010833 0.5279343 
3.341088 -2.15072 16.11926 0.8137393 -0.5208629 -0.1439505 
3.752223 -0.4730254 -9.587389 0.7870208 -0.1406115 0.5689105 
1.182301 -0.3470533 23.57016 -0.4909956 0.1441739 0.8579722 
-3.197354 0.560234 -22.22775 -0.920774 0.1435181 -0.2945477 
-0.5893359 3.932204 19.086 -0.1463916 0.9723414 -0.08691187 
-0.8976825 3.118807 -28.72448 -0.2876891 0.8955693 -0.1568542 
-2.214672 2.919981 -4.574385 -0.4813094 0.5817302 -0.6211687 
6.17873 -1.934534 25.39177 0.9223346 -0.2852123 -0.1135023 
0.6860188 -3.391249 -25.40838 0.1762716 -0.6546679 -0.7169649 
-2.458576 -2.460267 -1.847884 -0.4520334 -0.5117008 -0.7125211 
1.487219 -3.710952 17.1726 0.404723 -0.8868264 -0.1648913 
3.973016 0.227205 -0.1538234 0.8741094 0.07051528 -0.4643967 
-3.286648 -0.5991124 -28.28532 -0.6161473 -0.1590312 -0.762682 
-3.011651 -2.612423 11.05066 -0.6994586 -0.6276553 -0.2725089 
-3.155395 -2.63215 29 0.1724994 0.1539599 0.9497329 
-2.713899 -2.109588 -12.35284 -0.5555156 -0.3790157 0.7182103 
-6.3627 1.287951 25.27912 -0.9480215 0.1865629 -0.1257217 
-1.0734 3.838822 19.97733 -0.2664113 0.9545665 -0.06874239 
-3.362256 -0.1172457 -8.306236 -0.6392046 -0.06599678 -0.757157 
1.976107 -5.675658 21 0.1237803 -0.3639019 -0.9205218 
3.252464 -2.283909 10.06916 0.7660322 -0.5306582 -0.2625398 
3.812758 -1.144223 8.282849 0.8871023 -0.2560964 -0.2980701 
1.457749 6.311883 28.18601 0.2199034 0.9639032 0.1246254 
6.457178 0.4621261 27.7282 0.9877574 0.06487215 0.02971327 
-1.906915 -1.579294 24.32115 0.3839048 0.329156 0.8606585 
3.04321 -1.254439 -27.81139 0.6544896 -0.221636 -0.6932331 
3.147131 2.446088 7.071896 0.722753 0.5672959 -0.3231168 
-0.9666889 3.619176 -2.105244 -0.2400808 0.744701 -0.5929792 
4.430043 -4.719525 27.17538 0.6699269 -0.7155932 0.0246928 
0.5739133 3.718682 -8.41753 0.09823252 0.7844244 -0.5775691 
-3.269894 0.5308903 -23.6776 -0.6467188 0.1490389 0.7353417 
3.17351 -5.647539 27.6922 0.4630964 -0.8688837 0.07730623 
-3.737153 -1.40327 11.92349 -0.8813759 -0.3388479 -0.2571831 
3.701201 1.459084 10.25535 0.8660738 0.3537907 -0.2600932 
-2.443927 1.02263 24.41961 0.4674464 -0.1964765 0.8609868 
-2.729375 -1.332584 27.54597 0.8015869 0.4383225 0.3985032 
-1.523846 2.858419 -21.25242 -0.4455065 0.8684152 0.1672594 
2.866425 -2.432745 -27.17561 0.585225 -0.5261392 0.5879108 
-2.435426 3.151161 15.21437 -0.5975243 0.7546242 -0.1669083 
-1.934829 3.496267 -16.80263 -0.4192033 0.7763584 0.2024957 
-0.6580104 -3.936547 -18.84884 -0.1425023 -0.8653593 -0.02424036 
-2.063281 -4.668398 29 0.01550798 0.003122143 0.976334 
0.9912657 -3.580765 -23.99596 0.2366493 -0.7344914 -0.6056859 
2.969711 -2.02395 -25.82224 0.5852107 -0.433623 0.6505749 
3.534596 0.8734873 -14.42396 0.7266424 0.1516091 0.63509 
1.456559 3.315489 -22.98341 0.3281473 0.6642085 0.640682 
-2.942587 -0.9632888 26.11543 0.8000024 0.3829711 0.4553453 
-5.687341 -3.09862 23.05239 -0.827264 -0.4466404 -0.2661481 
-3.170586 2.424958 15.44619 -0.7764986 0.5934393 -0.1365934 
-3.790804 -0.3500839 -7.670334 -0.8028464 -0.0380817 0.5676217 
-2.382513 2.217236 -9.987989 -0.6288183 0.6352376 0.4009744 
-3.940154 -0.5637707 18.02405 -0.9645366 -0.1419669 -0.1534777 
-2.869474 1.089924 28.37369 0.8257484 -0.4221707 0.3703936 
-2.690793 2.562299 -8.259703 -0.5790763 0.5140156 -0.5970855 
1.064308 6.382316 28.21037 0.1598971 0.9713133 0.1350359 
-3.666683 -1.025432 -24.25889 -0.7639585 -0.2499857 -0.56794 
-3.534312 0.03638986 -21.964 -0.7035826 -0.02879939 -0.6826614 
2.773857 -2.230965 -5.210885 0.5842463 -0.4148561 -0.6705583 
-6.128811 2.109984 23.44747 -0.8945381 0.3063694 -0.2406688 
0.5161245 3.943278 18.32489 0.1253432 0.9711482 -0.1016013 
1.763638 -3.584918 3.622722 0.4224061 -0.7940977 -0.4017369 
2.989029 -1.269635 -22.94489 0.8873968 -0.34185 -0.03104396 
0.9590261 3.874059 -1.811418 0.2374281 0.8395323 0.3398419 
0.4555904 -4.07132 29 -0.0286302 0.2294797 0.9490772 
3.188405 2.396255 14.93886 0.7677698 0.5829804 -0.167762 
0.1946329 3.239733 -6.380286 0.09788048 0.9341151 0.2607167 
0.3574659 -3.646628 -4.058472 0.1056389 -0.745942 -0.6265769 
3.089754 -2.486245 -9.97366 0.6935709 -0.5158693 -0.4936081 
-0.9046264 -6.41528 23.32513 -0.1306415 -0.9333082 -0.230508 
3.940062 -0.5064105 13.99649 0.9460772 -0.1201529 -0.1860726 
0.9097556 -3.356365 -27.87992 0.2180102 -0.6496866 -0.705797 
4.319085 2.750183 29 -0.01684059 -0.003459956 0.9781023 
-5.290504 -1.006786 21 -0.3040922 -0.05763885 -0.9437397 
1.752902 -3.580111 14.0772 0.4503628 -0.8440974 -0.2117286 
2.262371 2.691875 -22.43083 0.4177212 0.5624791 -0.6891447 
-4.482551 -4.671659 26.88167 -0.6799372 -0.7032675 -0.003461706 
-1.056199 3.852535 1.563808 -0.2330464 0.8495341 -0.4469776 
5.954121 2.562852 26.43897 0.9010643 0.3773525 -0.04598836 
-3.06643 2.546366 -21.83822 -0.6842849 0.5465711 -0.4606929 
2.926603 -0.990975 24.9658 -0.7785442 0.379244 0.4974784 
-2.062239 -3.181184 -4.983605 -0.4633233 -0.6598135 0.5582232 
2.563879 2.535425 -28.04427 0.5581547 0.4928569 0.6272432 
-1.651415 -3.028881 -13.52375 -0.3592449 -0.5729877 0.7153972 
-2.374621 -5.227065 21 -0.1482453 -0.3203836 -0.9302422 
2.238742 3.162561 -9.41529 0.4985331 0.6825706 0.5084215 
-3.437771 1.973159 12.13483 -0.8225192 0.5061486 -0.1960079 
-1.324652 2.978011 -23.64088 -0.3810566 0.8153397 -0.4037266 
3.206071 -2.125633 -10.01845 0.7047513 -0.4274346 -0.5389091 
3.226665 -0.3778817 -21.6982 0.9314258 -0.1147834 0.1860286 
-3.985938 -0.1634029 16.93939 -0.9906119 -0.03753307 -0.09347135 
1.183571 -3.794982 19.33063 0.3242694 -0.9226887 -0.1388658 
6.473566 0.1174081 28.33805 0.9771771 0.01644764 0.1929286 
-3.996719 -0.07852439 -0.1651496 -0.9736069 -0.003737431 -0.09621018 
-6.045064 -2.380213 27.30799 -0.9223086 -0.353946 0.00955854 
-3.59809 -1.74122 -11.58893 -0.7798516 -0.4025607 -0.3301147 
-1.631428 -3.03 28.16267 0.4025771 0.8706389 0.1622024 
3.626482 1.671142 20.34674 0.9037689 0.4169297 -0.06110279 
3.603975 -1.107062 -15.86142 0.7501805 -0.2573469 0.5754125 
-0.1464237 -3.984402 14.56299 -0.03511174 -0.9563463 -0.2136032 
0.2821299 3.03 25.79971 -0.02910804 -0.882534 0.462702 
3.324257 -2.177667 8.231089 0.7742644 -0.4991412 -0.2984599 
5.608093 -3.257771 28.14595 0.8651496 -0.4908181 0.0685505 
-3.304177 -2.291302 29 0.2009039 0.1428739 0.9475527 
3.121806 2.481297 5.589991 0.7104957 0.5697972 -0.3523862 
-3.797155 -1.218068 -1.466883 -0.8225772 -0.287692 -0.4843763 
0.3914908 -3.398774 -14.63252 0.03276995 -0.6639743 0.7319014 
-3.350013 -2.165592 0.8199598 -0.7297718 -0.4981194 -0.4466969 
0.4609776 3.470037 -7.315152 0.05779557 0.6929901 -0.690937 
-0.1514096 -6.472272 22.67919 -0.01990598 -0.9355372 -0.2777455 
-1.503418 3.698741 6.389263 -0.3400564 0.8402245 -0.3531344 
0.2297146 -3.340737 -26.74116 0.08835837 -0.6328801 -0.7598591 
3.389169 0.0641139 -1.818789 0.6185095 -0.03441862 0.7729079 
-2.563617 2.306267 -15.90567 -0.5274588 0.4223131 -0.7148252 
-2.558514 -3.047472 13.70624 -0.6090505 -0.7297487 -0.2274523 
2.327941 2.56897 -12.95034 0.4868688 0.4759519 0.7125763 
0.1003051 -3.347152 -16.74806 0.06424677 -0.6362882 -0.7590992 
3.210923 -2.051105 -16.28761 0.7014069 -0.407301 -0.5552627 
-5.584448 3.305256 24.81858 -0.8287793 0.4860198 -0.148935 
2.621787 1.957238 -6.394762 0.6295045 0.5228911 -0.5229791 
-3.690209 0.6963342 -19.37495 -0.7756312 0.1161836 -0.5891162 
0.5835463 -3.217459 -16.99587 0.1224674 -0.8373264 0.4527922 
-2.144587 -3.283357 -10.06111 -0.4888043 -0.7035725 0.4963457 
1.655614 3.403459 -28.47335 0.3343918 0.7498634 -0.5381314 
-1.134617 -2.575882 24.51836 0.1992193 0.5290034 0.8002546 
0.6323229 -1.773803 23.96081 -0.1773436 0.4799569 0.8578863 
3.344549 0.138778 -1.440607 0.6049397 0.06459683 -0.785916 
0.887904 3.121524 -26.32913 0.2447448 0.9172253 -0.1605265 
3.050172 -2.578326 1.721362 0.696969 -0.5531931 -0.4273314 
-1.670004 -3.03 26.41092 0.4173041 0.8327735 0.3020975 
-0.5102482 -3.884918 -16.45505 -0.09094685 -0.844233 -0.509419 
5.559756 -3.241566 21.28337 0.725603 -0.4335441 -0.4579723 
-0.5793577 -3.244852 -10.57316 -0.07041789 -0.647436 -0.7419446 
-3.461761 -0.9042822 -15.63983 -0.686413 -0.2216049 -0.6641021 
-0.1398751 3.973805 -13.09384 0.01074751 0.8638736 0.4961922 
-1.170041 3.067566 -24.85768 -0.2947554 0.664781 -0.6443808 
1.446806 -3.345369 29 -0.1296441 0.3060241 0.9346406 
-1.861724 -4.426283 21 -0.0926302 -0.2186404 -0.9665064 
2.804051 2.169836 -21.78254 0.5809599 0.4060864 0.6773281 
-3.327828 0.2960329 26.95424 0.8874032 -0.1908234 0.3773445 
-6.375761 1.242044 28.05663 -0.9795139 0.1804891 0.05095784 
1.145095 3.817609 5.540778 0.2644066 0.8682554 -0.3563383 
3.810642 -5.253043 28.03866 0.5716055 -0.8085767 0.1010098 
2.154968 2.502165 -15.33839 0.4883701 0.5067962 0.6827864 
0.1982288 -3.973785 9.699759 0.05288745 -0.9256641 -0.3003132 
-1.253386 -0.7203392 23.70196 0.4361857 0.2658022 0.8575863 
1.690931 -3.612116 -0.3249431 0.394206 -0.7821954 -0.4705109 
1.163909 3.813766 8.618758 0.2723125 0.8850632 -0.2944732 
-2.654065 2.266939 -18.90072 -0.4989797 0.4789752 0.6974381 
-3.335192 2.181723 -25.56906 -0.7397041 0.4655072 -0.480397 
-2.497247 2.866238 29 0.1899529 -0.2220177 0.9409406 
-2.199223 2.924183 -22.07882 -0.4774762 0.5817789 -0.624063 
-3.654798 -0.8380794 -4.296548 -0.7559063 -0.2140388 -0.5882053 
0.8497626 3.308484 -11.15033 0.1232567 0.6521829 -0.7349862 
3.928369 0.04040412 -21.11556 0.8420188 0.01466597 -0.5221607 
-5.025177 -2.486548 21 -0.3014235 -0.1492762 -0.935672 
3.995856 0.03677845 7.18794 0.9214642 0.02177665 -0.3198827 
-0.620818 3.189538 -27.45522 -0.2034065 0.9161203 -0.3134112 
3.380705 -2.091221 -12.40978 0.7487208 -0.440992 -0.3060713 
-1.186647 -3.12383 -24.68441 -0.2686111 -0.5758475 0.7652541 
3.237916 -2.005772 -5.936414 0.6740246 -0.4449166 0.5576647 
-2.3942 2.309271 -23.48193 -0.4848333 0.4042884 -0.7684982 
-4.108403 -5.01274 22.88733 -0.5967032 -0.7250587 -0.2738012 
-3.408514 -1.451364 -10.05165 -0.723508 -0.2642352 0.6044372 
3.910266 0.7872139 14.64433 0.9422414 0.1971138 -0.1734646 
3.544984 -0.7292237 -19.50027 0.7147169 -0.1867222 0.6439093 
-2.474757 2.63418 -4.583582 -0.529923 0.5116419 -0.6450906 
0.9985378 -3.249949 -22.08995 0.1520191 -0.6389034 0.7386968 
-1.427276 3.480447 -10.82125 -0.3317841 0.7201641 -0.5770249 
-0.9526925 3.785604 -21.76144 -0.177508 0.8249319 0.5160263 
3.973695 0.2262962 1.746103 0.8850757 0.07135373 -0.4269564 
0.3340836 4.843464 29 -0.01270393 -0.06304071 0.9699098 
-3.9901 -0.2296203 15.5724 -0.9925328 -0.0538107 -0.083828 
-4.481274 1.740014 29 0.07794175 -0.02416824 0.9692667 
3.765471 -1.272476 7.919776 0.8733959 -0.2872397 -0.3051924 
-3.444228 1.075055 -26.98318 -0.7087355 0.1833569 -0.6517963 
-2.428737 -1.564674 24.5637 0.5846508 0.3665113 0.6778824 
-3.823056 1.156315 -3.003585 -0.8395465 0.2362443 -0.4376445 
-0.8806896 -3.895107 3.279917 -0.1782042 -0.8795325 -0.4068575 
-4.227544 -2.817218 29 0.01864177 0.0151629 0.9770375 
-3.720439 1.446478 19.44069 -0.9070169 0.4009613 -0.1026034 
-2.815029 -2.840333 10.52335 -0.6529749 -0.6742254 -0.2816295 
-1.589646 3.663122 1.289059 -0.3544914 0.800054 -0.4573173 
-4.18145 -2.853253 21 -0.2261572 -0.1486502 -0.9558951 
-6.488345 0.1257723 25.93006 -0.9728459 0.01823615 -0.08706572 
3.233552 0.4060624 -22.94267 0.8764943 0.07610498 0.4454446 
3.727156 2.304882 21 0.08930994 0.05527188 -0.9941421 
6.427016 0.7876167 27.98384 0.9864128 0.1103979 0.04908751 
-2.01222 5.611942 28.93535 -0.1424383 0.3702887 0.9070134 
3.380544 2.095346 1.782547 0.7486984 0.4755663 -0.4274947 
3.455217 3.294334 21 0.1226034 0.1177461 -0.9770066 
0.07259369 6.472272 22.7115 0.01396899 0.9358498 -0.2753927 
6.404974 -1.025498 26.19519 0.9647781 -0.1439534 -0.06228839 
0.5158074 3.949846 7.944928 0.1147058 0.9128461 -0.3102618 
3.474986 0.6365064 -17.56124 0.6821778 0.1674412 -0.6898366 
1.38757 3.742537 4.823287 0.3213212 0.8465182 -0.3696216 
3.431492 -1.758382 -28.50744 0.8245198 -0.4541535 0.03914112 
5.700441 -3.072309 24.28511 0.8416261 -0.449273 -0.1822781 
2.517555 2.741063 -14.3522 0.5456244 0.557141 0.5896573 
0.2563782 -3.679523 -18.54725 0.02241767 -0.7647744 0.6117736 
3.961033 4.474984 28.93131 0.2589346 0.3030144 0.9088438 
-3.758186 -1.090166 -7.944326 -0.8002891 -0.266613 -0.5200626 
2.417353 1.873023 24.9005 -0.7295163 -0.467614 0.4974033 
3.114456 -1.876565 -23.33253 0.6214051 -0.409969 0.6335605 
6.374968 -1.244833 25.9369 0.9576887 -0.1760102 -0.07884703 
3.403885 -1.546372 -5.866311 0.698905 -0.3506962 0.5899363 
-0.6389582 -5.339372 29 -0.006214599 -0.0520515 0.9845971 
-1.939688 -2.785031 -4.763178 -0.4104874 -0.5105068 0.7412629 
-3.617365 0.2874886 -5.675809 -0.7383429 0.02265338 -0.6435902 
-0.8487501 3.03 25.84426 0.08507049 -0.8768423 0.4670973 
-1.372342 3.551113 -13.29912 -0.324037 0.7432814 -0.5558705 
2.642025 -0.848754 24.49907 -0.519968 0.1793083 0.8157241 
3.069358 1.855676 -19.95168 0.6038827 0.4027259 -0.6559535 
2.993495 -1.29083 28.76402 -0.6106216 0.3096674 0.6086944 
-3.597175 -2.548824 29 0.129707 0.1026154 0.9583613 
3.497787 -1.916783 13.77513 0.842248 -0.4541487 -0.1899025 
-1.487897 -0.370567 -28.99999 -0.1194256 0.01101794 -0.866288 
1.178356 -3.080391 -24.49567 0.205167 -0.6894939 0.6380188 
0.0600336 -3.981826 4.091208 0.02742539 -0.8980942 -0.3935116 
